ncols         335
nrows         31
xllcorner     264246
yllcorner     664428
cellsize      2
NODATA_value  -9999
23.9969 23.98814 23.99253 24.01752 24.02938 24.00814 23.99316 23.97253 23.95504 23.95692 23.95442 23.96127 23.9675 23.96563 23.95124 23.92499 23.90564 23.87249 23.85686 23.83188 23.81751 23.8294 23.82751 23.83436 23.82998 23.81183 23.80185 23.79439 23.78876 23.78501 23.7719 23.75129 23.74691 23.74504 23.75372 23.77494 23.77493 23.7662 23.75438 23.73252 23.72191 23.72314 23.72876 23.73875 23.74564 23.74814 23.73315 23.71689 23.71065 23.70505 23.70314 23.69124 23.67997 23.65998 23.64935 23.64999 23.63936 23.63935 23.64622 23.65686 23.66311 23.67436 23.67376 23.67499 23.67872 23.67434 23.66559 23.65247 23.64619 23.63431 23.63619 23.6337 23.62561 23.61625 23.60499 23.59686 23.59624 23.60251 23.60876 23.61938 23.63124 23.64122 23.66187 23.6725 23.69124 23.71874 23.73686 23.75501 23.77689 23.79249 23.80683 23.82873 23.81996 23.82748 23.83499 23.85122 23.87376 23.88749 23.89123 23.88187 23.88249 23.86564 23.83506 23.83688 23.84874 23.86997 23.90247 23.92436 23.95373 23.98062 24.01245 24.01309 23.98372 23.97561 23.95561 23.94497 23.93314 23.91687 23.93376 23.97316 24.05064 24.14441 24.23564 24.33629 24.41004 24.45253 24.49627 24.51124 24.52061 24.53436 24.53627 24.52566 24.51694 24.50069 24.49319 24.51193 24.52628 24.53941 24.54128 24.56438 24.62314 24.70625 24.86311 25.00689 25.12999 25.24561 25.30562 25.36121 25.42061 25.48625 25.54626 25.63627 25.74811 25.8775 26.0225 26.17311 26.34689 26.48813 26.58126 26.61439 26.62192 26.73318 26.97129 27.32191 27.74815 28.2006 28.62496 29.0106 29.30244 29.43244 29.48874 29.47814 29.46253 29.48378 29.53374 29.61497 29.7156 29.8294 29.93127 30.01879 30.10628 30.18688 30.25689 30.33313 30.38627 30.43818 30.48503 30.52068 30.55379 30.59502 30.62752 30.66061 30.70934 30.74559 30.78936 30.83559 30.86561 30.88938 30.90752 30.92319 30.94006 30.96877 31.00936 31.04938 31.08753 31.14256 31.18569 31.23751 31.29686 31.3406 31.39622 31.42564 31.46939 31.49938 31.52064 31.55939 31.58253 31.61127 31.64126 31.68186 31.7181 31.73937 31.76876 31.78316 31.81752 31.85939 31.89249 31.93248 31.95999 32.00002 32.04753 32.08379 32.13254 32.18064 32.22439 32.2775 32.32561 32.37625 32.41623 32.44936 32.47437 32.49936 32.54251 32.59001 32.63376 32.68251 32.725 32.76626 32.82 32.85063 32.89503 32.93441 32.97628 33.03063 33.06622 33.11244 33.15308 33.19622 33.25249 33.30566 33.35815 33.40941 33.45628 33.50377 33.55688 33.61314 33.65812 33.68563 33.70377 33.725 33.74691 33.78376 33.82064 33.85064 33.88873 33.92685 33.97246 34.00559 34.04499 34.09001 34.12626 34.17813 34.2269 34.27254 34.31942 34.36939 34.41625 34.46375 34.51186 34.54562 34.57936 34.62247 34.66312 34.71565 34.77005 34.81817 34.86751 34.91561 34.96312 35.02127 35.05441 35.0913 35.12568 35.14254 35.17631 35.19566 35.21626 35.23499 35.25372 35.2756 35.2906 35.30188 35.29747 35.2706 35.25246 35.2287 35.21872 35.20995 35.19684 35.19308 35.19621 35.21121 35.2431 35.2606 35.26748 35.28684 35.28122 35.29061 35.29689 35.30256 35.30443 35.3063 35.30938 35.30375 35.30437
23.94246 23.94311 23.94875 23.99064 24.01748 24.01497 24.02062 24.01312 24.00377 24.00628 24.00564 24.01813 24.02812 24.03439 24.01749 23.98812 23.9575 23.91871 23.89684 23.86686 23.84874 23.85563 23.85748 23.86872 23.87871 23.85994 23.85122 23.84249 23.83749 23.83875 23.82689 23.80941 23.8044 23.79875 23.80432 23.82179 23.81991 23.81307 23.80436 23.78126 23.76751 23.76686 23.76812 23.77249 23.7769 23.77751 23.75314 23.73686 23.73251 23.72439 23.72689 23.71189 23.69622 23.67374 23.66373 23.65936 23.64311 23.64311 23.65559 23.67934 23.69496 23.71436 23.7125 23.70622 23.70434 23.69058 23.67371 23.66186 23.65747 23.65182 23.65494 23.65433 23.65122 23.64187 23.63874 23.63625 23.63625 23.64813 23.65438 23.67188 23.69814 23.71749 23.75188 23.76937 23.78622 23.81749 23.83248 23.83936 23.85249 23.85496 23.86494 23.88746 23.8812 23.88686 23.89689 23.90939 23.93505 23.9494 23.94689 23.93314 23.91438 23.88439 23.85504 23.85688 23.86625 23.88436 23.90184 23.91811 23.94561 23.97564 24.00813 24.00564 23.97877 23.96626 23.94939 23.94061 23.92875 23.90939 23.91688 23.95004 24.01752 24.11503 24.20501 24.29879 24.36628 24.40316 24.44253 24.45686 24.47684 24.49682 24.50248 24.48937 24.46941 24.44818 24.44319 24.46693 24.50254 24.53501 24.56687 24.61811 24.69688 24.80314 24.94812 25.08189 25.19062 25.28185 25.34687 25.40934 25.47435 25.54312 25.60624 25.70561 25.83621 25.98809 26.14059 26.29247 26.46064 26.58314 26.66004 26.69192 26.69256 26.81071 27.06506 27.42378 27.87438 28.34121 28.78496 29.17061 29.4431 29.57809 29.63374 29.63375 29.625 29.6425 29.67246 29.73808 29.82059 29.90562 29.98499 30.05189 30.12564 30.19688 30.27316 30.34813 30.41002 30.47066 30.51126 30.54753 30.57939 30.61564 30.64752 30.67438 30.71436 30.75061 30.78751 30.82498 30.845 30.86125 30.88376 30.91006 30.93816 30.9669 30.99811 31.03001 31.06628 31.11378 31.15129 31.19188 31.24062 31.28376 31.34062 31.37877 31.41814 31.44314 31.46191 31.50129 31.52941 31.56626 31.60001 31.63874 31.67312 31.69876 31.73815 31.76754 31.81503 31.85815 31.89626 31.93813 31.97502 32.02441 32.08127 32.12689 32.17501 32.22123 32.26376 32.30687 32.34562 32.38501 32.415 32.4475 32.47628 32.51501 32.56002 32.60503 32.64565 32.6869 32.72377 32.76752 32.81751 32.85251 32.89377 32.93254 32.97816 33.0219 33.06625 33.11246 33.15746 33.2112 33.26934 33.32249 33.37376 33.42754 33.48315 33.54002 33.60001 33.65503 33.69625 33.71689 33.71752 33.72186 33.71751 33.73811 33.78311 33.82685 33.89058 33.93871 33.98619 34.01558 34.04747 34.09499 34.13189 34.18754 34.23878 34.28504 34.3344 34.39061 34.44561 34.50374 34.55938 34.58875 34.6125 34.64186 34.67936 34.73313 34.78628 34.83752 34.87625 34.92313 34.96688 35.02502 35.05878 35.09378 35.13689 35.15001 35.18817 35.21566 35.23502 35.25999 35.2706 35.28313 35.29126 35.29877 35.29125 35.25872 35.23682 35.21681 35.21495 35.21244 35.20495 35.19746 35.2062 35.23185 35.27748 35.30498 35.3181 35.33806 35.32931 35.34434 35.36248 35.36627 35.36628 35.35939 35.34625 35.33939 35.34126
23.89936 23.89874 23.90129 23.93566 23.96812 23.98686 24.00624 24.01812 24.03378 24.04441 24.06 24.08184 24.09124 24.09752 24.07627 24.04754 24.01313 23.97747 23.95374 23.92061 23.8975 23.90063 23.90622 23.92123 23.93685 23.91934 23.91062 23.90373 23.90122 23.90372 23.89 23.87066 23.85752 23.84439 23.84747 23.85932 23.85681 23.85372 23.84373 23.8275 23.81436 23.81434 23.81688 23.81688 23.82129 23.8119 23.77502 23.76186 23.75501 23.74564 23.74875 23.72564 23.71121 23.69059 23.68934 23.68556 23.66934 23.66561 23.67809 23.70312 23.72248 23.74998 23.75 23.74557 23.74932 23.73559 23.72621 23.71624 23.70811 23.71058 23.71622 23.72249 23.73062 23.72503 23.72314 23.72376 23.72061 23.73498 23.73623 23.74999 23.7819 23.80312 23.84251 23.86437 23.87248 23.89813 23.90874 23.90436 23.90684 23.89744 23.89555 23.90993 23.90431 23.91309 23.92375 23.93939 23.96818 23.97628 23.9725 23.95561 23.92996 23.89059 23.86376 23.85624 23.86061 23.88123 23.88497 23.90122 23.92061 23.94812 23.98436 23.98689 23.97441 23.96879 23.96004 23.95313 23.94251 23.92252 23.92689 23.95942 24.01192 24.09631 24.16942 24.24629 24.30127 24.32689 24.35003 24.36187 24.38622 24.41934 24.45061 24.45564 24.4613 24.46756 24.48881 24.54191 24.60189 24.66309 24.73371 24.80934 24.90623 25.01314 25.12188 25.22689 25.31499 25.39123 25.45626 25.52061 25.57498 25.63001 25.68874 25.77497 25.90059 26.05246 26.21247 26.37687 26.55191 26.67628 26.74318 26.76692 26.75879 26.85569 27.10942 27.48505 27.97253 28.49374 28.96122 29.34497 29.59872 29.7256 29.78936 29.80125 29.79374 29.80123 29.81559 29.86122 29.93623 29.99936 30.04686 30.09186 30.13873 30.20624 30.29689 30.38876 30.46565 30.52378 30.55501 30.58377 30.61439 30.65251 30.69065 30.7125 30.74811 30.78684 30.81811 30.84871 30.8706 30.88686 30.91937 30.95566 30.98937 31.0181 31.04494 31.07182 31.10372 31.13937 31.17064 31.20501 31.24128 31.28379 31.32379 31.35631 31.39192 31.41444 31.43819 31.47631 31.51819 31.57315 31.62879 31.68376 31.71751 31.74001 31.77189 31.80376 31.84501 31.89503 31.94062 31.98249 32.03002 32.07003 32.11941 32.16565 32.21 32.25623 32.29874 32.33062 32.35562 32.38876 32.41314 32.44878 32.48756 32.52691 32.56753 32.61251 32.64438 32.67939 32.72125 32.76376 32.82375 32.87812 32.91751 32.96066 32.99501 33.02375 33.07187 33.11869 33.17745 33.23683 33.29934 33.35249 33.39876 33.45628 33.51814 33.5819 33.65313 33.70815 33.74876 33.75689 33.72815 33.71437 33.67751 33.67435 33.73373 33.79121 33.8837 33.96746 34.02121 34.05874 34.08814 34.12753 34.16253 34.20815 34.25625 34.31311 34.3731 34.45058 34.52498 34.58562 34.63935 34.65812 34.67001 34.69689 34.73127 34.77501 34.81439 34.84688 34.87249 34.90249 34.93938 34.98626 35.0244 35.08125 35.14559 35.18186 35.22875 35.26065 35.28128 35.31126 35.32375 35.32188 35.31501 35.30128 35.26939 35.24313 35.22185 35.21495 35.22933 35.22557 35.22744 35.22246 35.24184 35.28434 35.32936 35.36934 35.39057 35.40806 35.4068 35.41494 35.42434 35.42123 35.41124 35.39376 35.37872 35.37185 35.37812
23.87626 23.87376 23.86881 23.88881 23.91813 23.95125 23.99435 24.02687 24.05691 24.06943 24.08566 24.10938 24.12189 24.13314 24.11063 24.07752 24.03687 23.99312 23.96749 23.93873 23.91874 23.93311 23.94997 23.97498 24.00496 23.99309 23.98436 23.97749 23.96811 23.96936 23.96002 23.94691 23.93566 23.91438 23.90811 23.89496 23.89058 23.89372 23.89182 23.89309 23.88058 23.88434 23.88313 23.88438 23.88629 23.86501 23.82751 23.81061 23.79876 23.78812 23.78185 23.75501 23.74808 23.73685 23.74561 23.74809 23.73748 23.73312 23.74375 23.76252 23.77625 23.80374 23.80686 23.80743 23.8062 23.79561 23.79187 23.78941 23.79004 23.79436 23.7956 23.795 23.80559 23.79751 23.79814 23.80001 23.79187 23.8081 23.80872 23.82434 23.85626 23.88062 23.91062 23.92749 23.92684 23.93434 23.93998 23.93372 23.92994 23.91618 23.90993 23.91804 23.91618 23.92933 23.94188 23.95315 23.97567 23.97565 23.96625 23.94689 23.91813 23.8719 23.84629 23.84001 23.84813 23.87997 23.88373 23.89186 23.90186 23.92376 23.96061 23.97876 23.97878 23.97629 23.96816 23.96125 23.95687 23.94877 23.96126 23.99442 24.03193 24.09378 24.14378 24.19003 24.22187 24.25561 24.28376 24.31311 24.37685 24.43184 24.49996 24.545 24.58566 24.63318 24.68443 24.7594 24.83689 24.90685 24.98746 25.07187 25.16501 25.26253 25.35691 25.44253 25.5125 25.56061 25.58936 25.62121 25.64497 25.67499 25.72186 25.79248 25.89809 26.0331 26.19186 26.37812 26.58002 26.73064 26.80881 26.83881 26.82881 26.93944 27.23504 27.63689 28.16063 28.69996 29.14808 29.51186 29.74623 29.86436 29.93311 29.95936 29.95934 29.97059 29.98248 30.01249 30.07251 30.10999 30.12248 30.14624 30.16124 30.21624 30.31626 30.41625 30.51438 30.5875 30.61937 30.64562 30.68064 30.71127 30.74566 30.76377 30.79188 30.83189 30.8619 30.89061 30.90937 30.92999 30.97437 31.0169 31.05937 31.08747 31.10619 31.12933 31.15809 31.18624 31.21689 31.245 31.2744 31.30879 31.33316 31.35942 31.38754 31.40817 31.42692 31.48131 31.54256 31.61316 31.69879 31.75563 31.78437 31.80624 31.82499 31.84685 31.87061 31.91874 31.96873 32.01249 32.07876 32.11377 32.16253 32.20752 32.24187 32.28811 32.31561 32.34124 32.36438 32.395 32.43251 32.47879 32.53192 32.58065 32.62065 32.66126 32.68689 32.71941 32.76563 32.80937 32.8731 32.92561 32.95125 32.98252 33.00251 33.03375 33.08751 33.14872 33.21749 33.27625 33.33873 33.39189 33.44252 33.50067 33.56379 33.62942 33.70566 33.7619 33.80377 33.80189 33.745 33.70749 33.65125 33.63434 33.70374 33.77936 33.89624 34.00625 34.06936 34.11439 34.13877 34.17191 34.19004 34.23066 34.27312 34.33622 34.42435 34.51495 34.60809 34.67311 34.71561 34.72375 34.71564 34.73314 34.76751 34.80875 34.84938 34.86937 34.87686 34.88936 34.91187 34.96436 35.02562 35.10933 35.20179 35.24308 35.28122 35.305 35.32316 35.35314 35.36499 35.35688 35.33312 35.30314 35.26125 35.23438 35.22061 35.22807 35.24747 35.24123 35.24496 35.24684 35.28121 35.33744 35.39433 35.43932 35.4618 35.48492 35.48743 35.49181 35.4931 35.47061 35.44247 35.41186 35.38996 35.39496 35.41125
23.87065 23.86939 23.86254 23.87191 23.90063 23.94126 23.99686 24.04252 24.07569 24.08821 24.10131 24.12128 24.13566 24.14689 24.13063 24.09563 24.05184 24.00497 23.97623 23.95434 23.9331 23.95371 23.97433 23.99934 24.03621 24.02248 24.01247 24.00935 24.00499 24.01437 24.01939 24.01503 24.00126 23.97435 23.95937 23.93124 23.92812 23.94251 23.94435 23.95934 23.95247 23.94498 23.93814 23.93443 23.93382 23.91505 23.88379 23.87061 23.85061 23.83496 23.82121 23.79376 23.79621 23.79498 23.81372 23.81993 23.81121 23.80746 23.8081 23.81438 23.81934 23.84683 23.85245 23.85428 23.84558 23.83562 23.84125 23.84942 23.8663 23.86753 23.86441 23.86317 23.87314 23.87128 23.86566 23.86254 23.84939 23.85623 23.86623 23.87872 23.90314 23.92563 23.93748 23.94684 23.93871 23.93434 23.93686 23.93998 23.9412 23.93244 23.92682 23.92304 23.91743 23.91932 23.93059 23.93686 23.95251 23.95437 23.93813 23.92438 23.89875 23.85314 23.83503 23.82689 23.83939 23.87811 23.88497 23.88997 23.89498 23.915 23.94937 23.96626 23.97751 23.97563 23.96688 23.96372 23.95748 23.9575 23.97562 24.00565 24.03939 24.08751 24.13688 24.19564 24.24626 24.31624 24.37377 24.4375 24.52999 24.60748 24.69682 24.76558 24.83061 24.89812 24.96813 25.04749 25.12624 25.19872 25.27748 25.35875 25.43501 25.50751 25.55937 25.59562 25.62373 25.64246 25.65686 25.68496 25.70246 25.71686 25.74872 25.79309 25.87247 25.98061 26.12499 26.33376 26.56502 26.75627 26.86756 26.90756 26.90193 27.03006 27.37002 27.80938 28.37251 28.92498 29.33937 29.66749 29.86373 29.95748 30.01807 30.04684 30.05622 30.0756 30.09437 30.12375 30.17749 30.20812 30.20188 30.20499 30.18813 30.21812 30.33063 30.44753 30.58128 30.67939 30.71561 30.74497 30.77374 30.79812 30.82314 30.83564 30.85564 30.88566 30.90565 30.91813 30.94499 30.98747 31.04749 31.10688 31.14873 31.16436 31.17684 31.19496 31.21935 31.23686 31.2625 31.28938 31.31064 31.33503 31.35128 31.35502 31.37251 31.38439 31.39377 31.47255 31.55882 31.6563 31.76944 31.82814 31.84876 31.86501 31.86499 31.87187 31.88062 31.91812 31.97436 32.02436 32.09812 32.13815 32.16941 32.19877 32.21812 32.24937 32.28374 32.31376 32.34566 32.39939 32.46127 32.5332 32.60818 32.65755 32.68818 32.7219 32.74379 32.77441 32.81814 32.85252 32.90311 32.9425 32.9575 32.9844 33.00565 33.03876 33.09815 33.17311 33.25 33.32249 33.38747 33.43812 33.48563 33.54065 33.60625 33.675 33.75312 33.81249 33.85564 33.84814 33.77376 33.71563 33.64311 33.61685 33.69123 33.78186 33.91627 34.04564 34.12252 34.17127 34.19437 34.21188 34.21501 34.24439 34.27876 34.34686 34.45436 34.57058 34.68871 34.77059 34.80497 34.79248 34.75625 34.75063 34.77875 34.81062 34.84874 34.85622 34.84683 34.84561 34.85124 34.90001 34.98565 35.09372 35.21745 35.28121 35.32122 35.35188 35.37191 35.40314 35.41251 35.39875 35.37251 35.33627 35.28563 35.24249 35.22061 35.22433 35.24498 35.24874 35.25559 35.26747 35.31308 35.37682 35.44373 35.49933 35.51932 35.54681 35.54931 35.53121 35.52186 35.48124 35.44622 35.41309 35.39871 35.41934 35.44188
23.86319 23.86941 23.86816 23.87374 23.90934 23.95249 24.00748 24.0619 24.0913 24.10506 24.11942 24.13001 24.14627 24.15437 24.13936 24.11189 24.07124 24.02501 23.99752 23.97501 23.95126 23.97374 23.98873 24.00747 24.03311 24.01564 24.00062 24.00251 24.00251 24.01187 24.0294 24.02877 24.00877 23.98499 23.96815 23.93377 23.94501 23.96441 23.96809 23.98934 23.98122 23.97311 23.96564 23.96504 23.96506 23.94753 23.92628 23.91562 23.89001 23.87249 23.85559 23.82936 23.83371 23.83998 23.85686 23.86745 23.86746 23.86247 23.8606 23.85378 23.85626 23.87686 23.88373 23.89117 23.87745 23.87373 23.88623 23.89379 23.91627 23.91566 23.91439 23.92002 23.93189 23.93376 23.91377 23.89878 23.88002 23.87749 23.90064 23.91497 23.93188 23.95502 23.95374 23.95936 23.94624 23.92561 23.92249 23.93001 23.93809 23.94371 23.94246 23.93619 23.92932 23.92995 23.93746 23.93684 23.93811 23.92874 23.90936 23.89688 23.88626 23.84065 23.82629 23.81442 23.81877 23.86501 23.86936 23.87562 23.8925 23.90811 23.94309 23.95496 23.95247 23.95 23.94064 23.94812 23.96125 23.98999 24.04 24.10376 24.17376 24.24189 24.31564 24.39564 24.47002 24.56189 24.63252 24.71254 24.80564 24.88688 24.98373 25.0531 25.13252 25.21314 25.28624 25.36936 25.42746 25.47684 25.52626 25.56938 25.60875 25.64001 25.6531 25.65936 25.66623 25.6756 25.69124 25.71559 25.72811 25.74311 25.77122 25.81124 25.86997 25.94439 26.06438 26.28564 26.54501 26.77249 26.92002 26.96252 26.97128 27.14128 27.53312 28.01999 28.60186 29.13185 29.48624 29.76184 29.92995 30.00494 30.05932 30.08559 30.09186 30.10749 30.13563 30.17124 30.22874 30.27311 30.26312 30.25874 30.23124 30.24626 30.37751 30.51502 30.65941 30.76563 30.79061 30.80437 30.83001 30.85254 30.87568 30.88818 30.90692 30.92755 30.93753 30.94624 30.97625 31.04561 31.11812 31.17562 31.21811 31.21873 31.22933 31.25622 31.27372 31.28312 31.30251 31.32813 31.35191 31.37566 31.38691 31.37316 31.3744 31.3769 31.37876 31.46128 31.5738 31.68691 31.81257 31.8769 31.88251 31.88251 31.87186 31.86438 31.85686 31.89749 31.95686 32.01248 32.08498 32.11438 32.12626 32.13999 32.14873 32.16998 32.1981 32.22874 32.26126 32.36064 32.46752 32.58131 32.69754 32.73814 32.76877 32.79562 32.81438 32.84565 32.87937 32.90625 32.94748 32.97374 32.98187 32.99751 33.00753 33.03688 33.09315 33.17313 33.26439 33.35126 33.42186 33.46938 33.50936 33.5525 33.60999 33.6831 33.76686 33.83623 33.89063 33.88377 33.80126 33.73814 33.65751 33.62375 33.69812 33.78564 33.92253 34.06128 34.14256 34.19065 34.21251 34.22187 34.21498 34.23936 34.25938 34.32686 34.44876 34.57623 34.72435 34.81749 34.83996 34.81497 34.75435 34.74686 34.76499 34.79375 34.83812 34.83123 34.82935 34.8175 34.81068 34.84754 34.95878 35.09998 35.25247 35.34185 35.37562 35.40316 35.42192 35.45066 35.46314 35.44311 35.40874 35.36625 35.29873 35.24936 35.22311 35.22622 35.24686 35.25126 35.26687 35.29749 35.35748 35.43559 35.50436 35.55811 35.57622 35.59248 35.58809 35.54435 35.51375 35.47375 35.43936 35.42186 35.42246 35.44682 35.47874
23.89004 23.90689 23.91875 23.93059 23.96621 24.00749 24.04998 24.09439 24.11254 24.11941 24.12941 24.13752 24.15625 24.16371 24.15434 24.12937 24.08688 24.04378 24.01439 23.99124 23.97248 23.99311 24.00562 24.01563 24.03376 24.00941 23.98438 23.99126 23.99251 24.00312 24.03252 24.03562 24.00501 23.98746 23.97001 23.9344 23.96377 23.98067 23.98563 23.99873 23.98873 23.97937 23.97126 23.97694 23.97634 23.96379 23.95252 23.93998 23.91686 23.90248 23.88496 23.86686 23.86683 23.86874 23.8775 23.88873 23.88999 23.88873 23.88936 23.87378 23.87626 23.89187 23.89997 23.91618 23.89556 23.90182 23.89809 23.89814 23.92501 23.91753 23.93127 23.94252 23.95316 23.95502 23.92377 23.89942 23.87817 23.86939 23.8969 23.91809 23.93435 23.95813 23.95936 23.96062 23.94999 23.91872 23.91061 23.91623 23.92872 23.94748 23.95312 23.94811 23.93873 23.93498 23.93685 23.9256 23.91186 23.90311 23.88624 23.885 23.88438 23.83439 23.82002 23.8069 23.80627 23.85001 23.85124 23.84626 23.87251 23.88625 23.91499 23.93935 23.94123 23.96812 23.99875 24.04998 24.11248 24.18996 24.28374 24.38437 24.47688 24.56502 24.65125 24.73314 24.81316 24.89877 24.97064 25.05128 25.13939 25.20999 25.28934 25.34744 25.40999 25.47623 25.52496 25.57372 25.60431 25.62183 25.63441 25.64754 25.6569 25.66877 25.68309 25.68747 25.69748 25.70622 25.71686 25.73684 25.74746 25.75622 25.77683 25.8131 25.85497 25.9144 26.03254 26.28004 26.56814 26.81936 26.98812 27.025 27.04565 27.29127 27.74309 28.26871 28.85933 29.31308 29.60312 29.82561 29.95999 30.0281 30.07122 30.09499 30.11062 30.13002 30.16063 30.20811 30.26372 30.31123 30.31376 30.30688 30.27439 30.28001 30.41001 30.54504 30.69191 30.81627 30.83874 30.85124 30.87688 30.89065 30.90754 30.92441 30.94379 30.95629 30.96004 30.96065 30.99564 31.08187 31.15938 31.21686 31.24561 31.23811 31.24435 31.27689 31.29689 31.30191 31.32191 31.34439 31.37315 31.40252 31.42377 31.41065 31.40002 31.38812 31.37811 31.45811 31.56999 31.68187 31.79815 31.84873 31.85561 31.86188 31.86186 31.85439 31.84188 31.86687 31.91127 31.95689 32.02001 32.04689 32.05002 32.05812 32.05687 32.06937 32.08811 32.11438 32.14064 32.27939 32.43626 32.59878 32.75814 32.79748 32.82686 32.8506 32.87435 32.90876 32.92625 32.94186 32.95998 32.95935 32.95749 32.95751 32.97066 33.00377 33.06066 33.14941 33.24941 33.34878 33.42562 33.47189 33.50498 33.53938 33.59 33.65809 33.75061 33.83561 33.90063 33.91313 33.83313 33.75686 33.67997 33.64498 33.70435 33.78938 33.91064 34.035 34.12316 34.17749 34.20997 34.2256 34.21807 34.23685 34.245 34.3 34.42127 34.54874 34.72123 34.83688 34.8575 34.82999 34.75124 34.74683 34.74683 34.76501 34.82001 34.81875 34.82624 34.82314 34.81068 34.85316 34.98191 35.13999 35.31499 35.40062 35.43251 35.45754 35.46754 35.48941 35.48877 35.4631 35.42624 35.38063 35.30872 35.25187 35.22563 35.22687 35.2444 35.2488 35.2719 35.32189 35.39687 35.48059 35.54562 35.58437 35.58875 35.59126 35.57563 35.52376 35.4919 35.46003 35.43438 35.43186 35.43997 35.46619 35.49123
23.93249 23.96562 23.97937 24.00122 24.03436 24.06562 24.09749 24.12374 24.12563 24.12751 24.13752 24.14503 24.16752 24.17063 24.16312 24.13814 24.09689 24.06565 24.03939 24.0175 23.99374 24.00563 24.01315 24.0144 24.02815 23.9994 23.96312 23.97561 23.98187 23.98938 24.02376 24.02498 23.98122 23.9737 23.96125 23.94127 23.98504 23.99631 23.99377 23.98751 23.97999 23.97251 23.97191 23.9832 23.97949 23.96445 23.94692 23.93188 23.9031 23.8906 23.87807 23.86686 23.87184 23.87561 23.88375 23.89184 23.88873 23.88437 23.88562 23.86941 23.87441 23.89063 23.89811 23.91183 23.89057 23.87932 23.86244 23.85435 23.87807 23.89123 23.91813 23.94187 23.95439 23.95749 23.92561 23.89564 23.87815 23.86876 23.89689 23.91933 23.93371 23.94998 23.95436 23.95874 23.95375 23.92874 23.92062 23.91999 23.92999 23.94811 23.95311 23.95312 23.94434 23.93373 23.92871 23.90683 23.87749 23.8725 23.85939 23.86877 23.87437 23.81937 23.79562 23.77 23.75751 23.79314 23.8 23.81627 23.87189 23.91999 23.98312 24.03749 24.08812 24.16377 24.25064 24.35499 24.45124 24.55434 24.65312 24.7525 24.84749 24.93438 25.02373 25.1125 25.19752 25.27064 25.32814 25.38377 25.43001 25.4706 25.51496 25.53867 25.5712 25.60556 25.62367 25.64307 25.65492 25.65807 25.66252 25.67063 25.67374 25.68374 25.69683 25.70561 25.71564 25.72875 25.74249 25.76246 25.7743 25.77119 25.77806 25.80307 25.84685 25.92438 26.07504 26.35444 26.65191 26.90187 27.06561 27.08871 27.11686 27.4081 27.87996 28.4306 29.02622 29.43311 29.68688 29.86874 29.97437 30.03247 30.07059 30.09499 30.11501 30.13878 30.17752 30.23811 30.29746 30.35122 30.35687 30.34562 30.31501 30.30689 30.44315 30.58067 30.72879 30.86565 30.88125 30.89001 30.91064 30.92129 30.93255 30.94942 30.96878 30.97813 30.97813 30.96375 31.00625 31.09999 31.18187 31.24686 31.25249 31.2325 31.23436 31.27001 31.30064 31.30627 31.32127 31.34503 31.37751 31.41626 31.44564 31.43252 31.41066 31.39002 31.37812 31.43061 31.54124 31.64436 31.74377 31.80562 31.81064 31.82442 31.83753 31.8363 31.8363 31.84001 31.86939 31.90001 31.94625 31.96814 31.95814 31.96313 31.95689 31.95813 31.97625 31.99565 32.01128 32.18566 32.37252 32.57004 32.76438 32.79934 32.83059 32.85558 32.88058 32.91375 32.91939 32.92315 32.92441 32.91501 32.91125 32.90937 32.92938 32.96249 33.02188 33.11502 33.22441 33.3344 33.41563 33.46125 33.4881 33.51624 33.56374 33.63311 33.72936 33.81499 33.88688 33.90813 33.83564 33.77061 33.69934 33.65871 33.70618 33.76746 33.85871 33.97186 34.06066 34.12937 34.18811 34.21811 34.22995 34.24872 34.24812 34.28624 34.39066 34.51814 34.69689 34.82378 34.84561 34.82246 34.75809 34.74683 34.75247 34.76938 34.81062 34.81062 34.81626 34.81816 34.81068 34.8688 35.02502 35.20185 35.38249 35.46875 35.49002 35.5088 35.51189 35.52001 35.50626 35.46998 35.43001 35.38064 35.30998 35.25124 35.22563 35.22624 35.23939 35.25504 35.28504 35.34439 35.42064 35.49501 35.54189 35.55751 35.55127 35.53251 35.50876 35.4644 35.44128 35.43253 35.43185 35.43185 35.43557 35.45056 35.4662
23.98809 24.02749 24.05434 24.09308 24.12371 24.14247 24.14936 24.15809 24.14937 24.14186 24.15187 24.15503 24.17063 24.17312 24.16499 24.13939 24.10753 24.08003 24.05751 24.03688 24.01126 24.03128 24.04129 24.04004 24.04877 24.00439 23.97062 23.98059 23.98497 23.99312 24.01312 24.01499 23.9775 23.97123 23.96938 23.96252 24.0044 24.00814 23.99063 23.96127 23.95126 23.95191 23.96193 23.98382 23.97634 23.95757 23.93756 23.91127 23.88374 23.8731 23.86119 23.8581 23.86186 23.86689 23.87443 23.88067 23.87942 23.87255 23.87317 23.85881 23.86069 23.87066 23.87749 23.89059 23.87559 23.86182 23.83621 23.82184 23.83934 23.86874 23.90063 23.92624 23.93624 23.93186 23.91311 23.88813 23.87876 23.87311 23.88311 23.90245 23.91432 23.92434 23.93748 23.94622 23.95001 23.9369 23.93439 23.92752 23.93189 23.94688 23.95127 23.95753 23.94187 23.92497 23.90746 23.87559 23.83687 23.82 23.80564 23.80814 23.81437 23.77187 23.75936 23.75498 23.77061 23.83315 23.8744 23.93379 24.02817 24.11562 24.22312 24.32375 24.41751 24.5288 24.63818 24.75002 24.85377 24.95624 25.05874 25.15874 25.24311 25.32248 25.38559 25.44186 25.49436 25.52314 25.54064 25.55626 25.56441 25.57875 25.60062 25.60746 25.62186 25.64122 25.64994 25.6631 25.6737 25.67558 25.67625 25.67936 25.68372 25.68936 25.70623 25.71939 25.72504 25.74627 25.75687 25.77496 25.78868 25.78184 25.77497 25.79748 25.84124 25.92999 26.13688 26.44502 26.75814 26.99999 27.13749 27.14872 27.17373 27.52247 28.01808 28.58811 29.19373 29.54186 29.75814 29.90563 29.98877 30.04061 30.07186 30.09374 30.1125 30.14251 30.19562 30.26873 30.34121 30.39435 30.39999 30.39312 30.3675 30.36125 30.50313 30.63438 30.77438 30.90938 30.91189 30.91752 30.93317 30.93818 30.94507 30.9557 30.97629 30.98939 30.99437 30.97873 31.02 31.11062 31.18751 31.25436 31.24248 31.2156 31.21371 31.24686 31.29123 31.30249 31.32127 31.34879 31.38376 31.42626 31.455 31.45062 31.43066 31.41315 31.40064 31.42061 31.51621 31.60808 31.70372 31.77747 31.78938 31.80754 31.83004 31.83879 31.8363 31.8363 31.84503 31.85316 31.88753 31.90439 31.89688 31.91312 31.90501 31.90187 31.90687 31.90749 31.90812 32.09376 32.29876 32.52188 32.73997 32.77933 32.81808 32.84433 32.86621 32.90063 32.90001 32.90001 32.90564 32.89936 32.89061 32.88932 32.90685 32.93872 33.00312 33.09566 33.21192 33.31692 33.40625 33.45626 33.47997 33.51001 33.5494 33.61438 33.71375 33.79187 33.86126 33.88438 33.81314 33.7606 33.69809 33.65559 33.68744 33.72623 33.79247 33.89312 33.98004 34.06002 34.13751 34.18252 34.21685 34.23874 34.24938 34.28935 34.38376 34.51188 34.6769 34.79442 34.81813 34.80372 34.75872 34.74683 34.75999 34.77127 34.79812 34.80625 34.81001 34.81628 34.81068 34.8913 35.07565 35.26624 35.44938 35.53189 35.53629 35.54193 35.53501 35.53124 35.51062 35.47435 35.43687 35.38938 35.3181 35.26435 35.23499 35.23249 35.25063 35.26753 35.30753 35.36251 35.41814 35.47626 35.50314 35.50441 35.50691 35.48504 35.45628 35.43501 35.43185 35.43185 35.43185 35.43185 35.43185 35.43185 35.44121
24.12059 24.15561 24.19748 24.24248 24.26687 24.25436 24.22935 24.22308 24.20371 24.18435 24.18875 24.18943 24.20317 24.20691 24.20316 24.17253 24.13563 24.10502 24.07937 24.05687 24.03814 24.06191 24.07254 24.06878 24.07061 24.01558 23.98183 23.98868 23.9887 23.9975 24.00374 23.99749 23.96749 23.95997 23.9681 23.97189 24.00502 24.00751 23.9844 23.95127 23.94002 23.94191 23.95629 23.97442 23.95882 23.93758 23.90632 23.87503 23.85313 23.84185 23.83369 23.83374 23.84375 23.85252 23.86506 23.87381 23.8713 23.86317 23.85756 23.84254 23.8344 23.83937 23.84183 23.85183 23.84184 23.82808 23.80123 23.79059 23.81122 23.84812 23.87438 23.88688 23.88498 23.87186 23.87683 23.88123 23.8956 23.90119 23.89745 23.89869 23.89869 23.90871 23.92998 23.94059 23.94874 23.94001 23.93625 23.92625 23.92499 23.93624 23.94439 23.95066 23.92564 23.88749 23.84872 23.80559 23.77748 23.78061 23.79375 23.82501 23.85686 23.85687 23.87622 23.90747 23.95501 24.04128 24.12378 24.22378 24.34877 24.47125 24.59751 24.72002 24.8369 24.95691 25.07441 25.18377 25.27502 25.35375 25.42501 25.48563 25.52686 25.56624 25.58809 25.60434 25.62311 25.61999 25.61501 25.61436 25.61378 25.62374 25.63809 25.65184 25.65997 25.67059 25.67497 25.68061 25.69184 25.69371 25.69499 25.68937 25.69247 25.69812 25.71812 25.72939 25.72878 25.75313 25.75749 25.77808 25.80119 25.78872 25.78309 25.80246 25.84935 25.96185 26.22001 26.55627 26.87564 27.11062 27.21812 27.21935 27.23936 27.63434 28.15122 28.73937 29.3525 29.64751 29.8275 29.94627 30.01752 30.06437 30.08937 30.10311 30.11437 30.14376 30.20626 30.28562 30.37623 30.43499 30.44751 30.44688 30.41499 30.41249 30.53685 30.65874 30.79812 30.93064 30.94377 30.95624 30.96751 30.96313 30.95753 30.95629 30.97251 30.98436 30.99059 30.97248 31.02437 31.11813 31.20626 31.29936 31.27998 31.25124 31.23936 31.25126 31.29314 31.30753 31.32816 31.35254 31.38186 31.41872 31.44496 31.45496 31.44002 31.43062 31.42 31.42811 31.52121 31.60684 31.70558 31.78309 31.79625 31.82191 31.84566 31.86064 31.86126 31.8475 31.8394 31.8394 31.85316 31.87753 31.87628 31.90004 31.89379 31.88253 31.88377 31.87064 31.86501 32.04689 32.25626 32.48751 32.71186 32.75436 32.7906 32.81934 32.83686 32.87376 32.87815 32.8744 32.88253 32.8775 32.86625 32.87058 32.89435 32.93248 32.99999 33.09753 33.21128 33.30504 33.40002 33.45565 33.48376 33.52004 33.55254 33.60814 33.70564 33.77749 33.83688 33.84624 33.77374 33.72808 33.6768 33.64056 33.65305 33.66996 33.71809 33.80499 33.89377 33.98627 34.07625 34.1394 34.18751 34.21501 34.24129 34.28812 34.38063 34.50562 34.64624 34.73751 34.76561 34.76121 34.74124 34.74434 34.75499 34.75879 34.76563 34.78188 34.78689 34.80314 34.82253 34.92378 35.12001 35.3231 35.50436 35.57938 35.57625 35.56375 35.5431 35.52247 35.49436 35.46249 35.43188 35.38939 35.32935 35.27435 35.24937 35.245 35.2519 35.27006 35.30379 35.35191 35.40126 35.44125 35.46123 35.45623 35.45874 35.45188 35.43185 35.43185 35.43185 35.43373 35.44247 35.43558 35.43185 35.43185 35.43185
24.29247 24.31996 24.35996 24.37748 24.38813 24.34501 24.30375 24.30435 24.28436 24.2631 24.25937 24.24254 24.24007 24.23695 24.23945 24.21755 24.19251 24.16127 24.13001 24.10127 24.07192 24.0963 24.10379 24.09502 24.09373 24.02493 23.98994 23.9843 23.97556 23.98497 23.97747 23.96809 23.95059 23.93621 23.94934 23.95501 23.97314 23.97688 23.95627 23.93628 23.92127 23.92567 23.94318 23.96254 23.95944 23.94322 23.90134 23.85505 23.82001 23.80057 23.79743 23.8031 23.82 23.83628 23.85067 23.85757 23.85443 23.84381 23.83569 23.82189 23.81188 23.81436 23.81121 23.81312 23.80376 23.78748 23.77374 23.77434 23.79936 23.83812 23.85061 23.85559 23.84556 23.83744 23.85868 23.87681 23.90431 23.90804 23.89181 23.88369 23.88121 23.89497 23.92247 23.92558 23.92874 23.92689 23.92251 23.91439 23.91624 23.93311 23.95813 23.98001 23.96626 23.92249 23.8806 23.86499 23.87 23.90752 23.95066 24.00129 24.0569 24.10565 24.1719 24.24563 24.32941 24.43818 24.54194 24.66193 24.78691 24.91562 25.04687 25.16063 25.2725 25.35564 25.42879 25.49317 25.53818 25.57441 25.60064 25.61812 25.62809 25.63934 25.64244 25.64619 25.65434 25.65435 25.65311 25.65247 25.65563 25.66874 25.67936 25.68874 25.69062 25.68999 25.69374 25.70687 25.71875 25.71687 25.71749 25.70749 25.70309 25.71311 25.725 25.73127 25.72878 25.74376 25.74874 25.76871 25.80496 25.80811 25.82059 25.85308 25.90747 26.04122 26.33873 26.68314 26.9994 27.22001 27.29002 27.29124 27.31811 27.73997 28.27687 28.87627 29.48501 29.74627 29.89 29.98376 30.045 30.08248 30.1056 30.11186 30.11626 30.14562 30.21187 30.30122 30.40496 30.47872 30.49686 30.49751 30.46498 30.45311 30.56371 30.67683 30.81124 30.93689 30.96316 30.98002 30.98691 30.97751 30.96128 30.95629 30.95688 30.97187 30.98249 30.9681 31.02875 31.12374 31.21936 31.33061 31.31999 31.29314 31.27374 31.27188 31.30313 31.31875 31.33939 31.35939 31.37749 31.40184 31.42248 31.44748 31.44751 31.45499 31.44812 31.43938 31.53124 31.61689 31.72187 31.81251 31.82439 31.83941 31.85191 31.86063 31.85874 31.84311 31.8394 31.8394 31.84567 31.87628 31.87628 31.89691 31.89129 31.87254 31.87191 31.85252 31.84941 32.02941 32.24628 32.48188 32.70435 32.74874 32.77498 32.79749 32.80878 32.84127 32.85254 32.85067 32.86378 32.86625 32.85623 32.87619 32.90497 32.94624 33.01626 33.10628 33.21503 33.30876 33.40749 33.46563 33.49561 33.52814 33.55441 33.61252 33.70752 33.76751 33.81126 33.79876 33.72251 33.68999 33.65934 33.62808 33.63245 33.63435 33.66124 33.74439 33.82876 33.92503 34.02437 34.09564 34.15564 34.19376 34.2388 34.2975 34.39188 34.50436 34.60372 34.66562 34.6881 34.69559 34.7025 34.71998 34.73439 34.73379 34.72498 34.74061 34.74686 34.77562 34.8294 34.94941 35.16378 35.37437 35.54689 35.62065 35.6069 35.58001 35.55437 35.52998 35.50437 35.47939 35.45377 35.41439 35.35186 35.28934 35.25871 35.24557 35.24811 35.26876 35.2969 35.33879 35.38188 35.40999 35.42809 35.42374 35.4256 35.43185 35.43185 35.43685 35.45497 35.46871 35.47872 35.4681 35.45184 35.44435 35.43372
24.51561 24.50998 24.52746 24.51061 24.51624 24.45624 24.39251 24.41125 24.4 24.37811 24.36934 24.32312 24.29689 24.28878 24.29943 24.29753 24.29062 24.25752 24.21501 24.17564 24.13506 24.14942 24.14441 24.12314 24.11248 24.03619 24.01057 23.99744 23.97244 23.97496 23.95245 23.93307 23.92372 23.89998 23.91187 23.91754 23.92127 23.93627 23.92066 23.91501 23.90566 23.91317 23.9344 23.95314 23.96126 23.94629 23.90066 23.84191 23.80253 23.78249 23.78624 23.80128 23.81314 23.82628 23.83318 23.83818 23.83256 23.81819 23.80816 23.79311 23.77994 23.78119 23.77371 23.77126 23.76504 23.76249 23.76439 23.77123 23.80064 23.82627 23.82187 23.82501 23.81623 23.81686 23.84371 23.86495 23.89243 23.88803 23.86493 23.85807 23.85371 23.87311 23.90561 23.89561 23.89251 23.88441 23.88501 23.90438 23.94435 23.99686 24.05376 24.08814 24.0994 24.09687 24.10811 24.15814 24.20939 24.27691 24.33379 24.39378 24.46504 24.53754 24.62692 24.71691 24.81253 24.91691 25.01005 25.11379 25.21252 25.31064 25.40689 25.48502 25.54814 25.58501 25.60438 25.61129 25.61816 25.62314 25.63751 25.64561 25.64808 25.65873 25.65808 25.66431 25.67371 25.67558 25.67684 25.67872 25.68126 25.68814 25.70001 25.71064 25.71564 25.71814 25.71816 25.73066 25.73813 25.73313 25.73561 25.72249 25.71561 25.72812 25.73187 25.74125 25.73438 25.74624 25.76186 25.78623 25.83936 25.86625 25.89561 25.94185 26.01373 26.17061 26.49061 26.82937 27.12126 27.31374 27.35627 27.37313 27.43251 27.86813 28.40501 28.99504 29.58002 29.81816 29.94504 30.02191 30.07127 30.10376 30.12687 30.12814 30.12628 30.15688 30.2256 30.32308 30.44558 30.52247 30.54938 30.55501 30.51998 30.51684 30.60809 30.70996 30.83438 30.9469 30.98377 30.99937 31.00126 30.98499 30.96001 30.95629 30.95629 30.95629 30.95629 30.95629 31.00875 31.11376 31.22062 31.3425 31.35436 31.33064 31.31001 31.29815 31.31314 31.3275 31.34623 31.36373 31.37749 31.39623 31.41876 31.45438 31.46189 31.4825 31.47564 31.46691 31.56128 31.64754 31.76312 31.85125 31.86125 31.86249 31.85814 31.86187 31.85749 31.84814 31.84377 31.8394 31.85382 31.88129 31.87692 31.89192 31.89502 31.87564 31.88064 31.86938 31.87313 32.03939 32.24876 32.47187 32.67999 32.73438 32.74939 32.76192 32.76881 32.79443 32.81816 32.82814 32.84687 32.85123 32.84249 32.86996 32.89622 32.95001 33.02438 33.10938 33.21564 33.30563 33.40624 33.46876 33.50312 33.53063 33.54879 33.6019 33.69627 33.75813 33.79438 33.77187 33.69062 33.65313 33.62936 33.6056 33.60373 33.60124 33.62876 33.70252 33.7869 33.88253 33.97562 34.05378 34.11689 34.16939 34.23192 34.30125 34.4 34.49686 34.57123 34.61937 34.64499 34.66312 34.68502 34.70563 34.71503 34.70378 34.6781 34.68436 34.69684 34.7431 34.81937 34.9369 35.15378 35.3644 35.53377 35.62751 35.61563 35.58875 35.56561 35.54872 35.53123 35.51563 35.49813 35.45626 35.385 35.31248 35.26998 35.25497 35.25623 35.27253 35.29502 35.32692 35.37502 35.40437 35.42374 35.42374 35.42374 35.43871 35.4381 35.46812 35.49562 35.50938 35.52126 35.51691 35.50316 35.49065 35.46689
24.74937 24.7225 24.70874 24.64437 24.61876 24.54187 24.47375 24.51312 24.53062 24.52562 24.51126 24.43878 24.39316 24.37629 24.39381 24.41564 24.4225 24.40316 24.35751 24.30192 24.24756 24.22817 24.19254 24.15377 24.13252 24.06311 24.04062 24.03062 23.99684 23.99122 23.96121 23.92371 23.89122 23.85061 23.84689 23.84005 23.84818 23.87005 23.86942 23.87751 23.87376 23.88314 23.90127 23.92814 23.94939 23.93753 23.89315 23.83565 23.79004 23.76628 23.77566 23.79317 23.80626 23.81936 23.82374 23.82313 23.81189 23.79441 23.78312 23.76182 23.74679 23.74869 23.72873 23.71878 23.70818 23.70878 23.72817 23.74503 23.78129 23.79502 23.78501 23.7925 23.79373 23.81125 23.83935 23.85748 23.87122 23.84621 23.8187 23.80744 23.80494 23.85434 23.90747 23.91436 23.9344 23.93627 23.94939 24.00187 24.07934 24.15374 24.25374 24.32503 24.39315 24.46189 24.51627 24.60189 24.66752 24.74629 24.81754 24.89067 24.96443 25.03379 25.11003 25.17627 25.24002 25.30753 25.36191 25.42566 25.48938 25.54626 25.59564 25.63001 25.64938 25.65436 25.65746 25.65437 25.65248 25.65561 25.66313 25.65999 25.66061 25.66439 25.66124 25.6712 25.68059 25.68432 25.68931 25.69809 25.70685 25.71496 25.72809 25.73559 25.73686 25.74124 25.7394 25.74753 25.75812 25.75187 25.75874 25.75312 25.73937 25.74813 25.74562 25.75499 25.75875 25.77876 25.80566 25.8369 25.90064 25.93751 25.99372 26.0606 26.16561 26.37313 26.69687 27.01314 27.25813 27.39999 27.41438 27.45872 27.57811 28.02248 28.56249 29.13063 29.65751 29.87502 29.98877 30.04439 30.08751 30.11626 30.13813 30.14378 30.13566 30.16375 30.22685 30.32808 30.46621 30.55311 30.59254 30.60255 30.56813 30.56624 30.64685 30.7431 30.85563 30.96065 31.00875 31.02186 31.02937 31.0131 30.98562 30.96688 30.96059 30.96435 30.96059 30.95629 31.01063 31.1125 31.22249 31.34375 31.37624 31.36941 31.35441 31.34128 31.34503 31.34875 31.36374 31.37685 31.38438 31.40501 31.42879 31.47254 31.49064 31.51064 31.50626 31.49442 31.59006 31.68382 31.79691 31.88315 31.88752 31.87939 31.86879 31.8719 31.86813 31.86314 31.86065 31.85316 31.86568 31.88441 31.87941 31.88628 31.89002 31.86877 31.88378 31.89567 31.92002 32.07941 32.26564 32.45501 32.62751 32.68439 32.69627 32.71191 32.71693 32.73941 32.76876 32.78249 32.80685 32.81184 32.80811 32.84435 32.8756 32.9425 33.02498 33.10561 33.20938 33.29812 33.39063 33.45126 33.48689 33.50938 33.52754 33.58316 33.67879 33.74751 33.7831 33.75998 33.67873 33.63376 33.61501 33.59062 33.58875 33.58624 33.60938 33.675 33.75437 33.84312 33.92622 34.0069 34.06689 34.12564 34.19627 34.27062 34.37062 34.45875 34.52624 34.56875 34.59623 34.61499 34.63503 34.64689 34.6469 34.63251 34.60311 34.60686 34.63685 34.70123 34.79935 34.91439 35.12814 35.34127 35.50564 35.62563 35.62251 35.59438 35.57689 35.56189 35.54565 35.53065 35.51315 35.47063 35.40247 35.33059 35.28809 35.27309 35.26437 35.27126 35.27941 35.30441 35.3719 35.42313 35.46122 35.45806 35.44119 35.44807 35.45433 35.49438 35.53312 35.55751 35.56504 35.56505 35.55254 35.53065 35.49564
24.92749 24.91374 24.87686 24.77687 24.70689 24.61064 24.55564 24.60504 24.65191 24.68439 24.67565 24.58502 24.49937 24.46564 24.47877 24.53312 24.58313 24.59253 24.56128 24.4994 24.41503 24.35314 24.26878 24.19879 24.17317 24.11003 24.10064 24.09813 24.06499 24.05747 24.01746 23.95308 23.89433 23.82122 23.79625 23.78441 23.79193 23.81319 23.81943 23.83314 23.83441 23.85254 23.87066 23.90629 23.93939 23.92814 23.89313 23.83939 23.79004 23.76754 23.77006 23.78069 23.79129 23.80501 23.81124 23.81124 23.79626 23.7819 23.77124 23.74744 23.73929 23.74119 23.71875 23.70818 23.68633 23.67381 23.69193 23.70441 23.73318 23.73438 23.72187 23.73686 23.74685 23.77374 23.79375 23.785 23.77811 23.75061 23.74808 23.7837 23.83684 23.93559 24.01248 24.03874 24.08752 24.12004 24.16631 24.24691 24.34626 24.43627 24.55688 24.6669 24.78251 24.89126 24.97814 25.08252 25.13817 25.21068 25.26506 25.31445 25.36133 25.40129 25.45004 25.48753 25.52564 25.55753 25.57502 25.59562 25.61687 25.63814 25.66066 25.67626 25.68187 25.68059 25.67932 25.67373 25.66934 25.67121 25.67748 25.67186 25.66687 25.66814 25.66438 25.67684 25.68998 25.6956 25.70308 25.71371 25.7262 25.7368 25.75117 25.7568 25.75745 25.76247 25.75876 25.75878 25.765 25.75751 25.76561 25.77499 25.76312 25.7775 25.77626 25.78622 25.80063 25.82065 25.86066 25.90567 25.98189 26.03938 26.11688 26.22501 26.3869 26.64188 26.95561 27.21438 27.38938 27.47126 27.46876 27.56061 27.74685 28.17936 28.72561 29.25439 29.71502 29.93441 30.02754 30.05939 30.08501 30.1019 30.12439 30.13817 30.14129 30.18126 30.24686 30.35685 30.49936 30.58877 30.63693 30.65067 30.61876 30.61685 30.68936 30.77936 30.88688 30.98877 31.04874 31.06874 31.08314 31.07187 31.04188 31.02375 31.00684 31.00996 31.00619 31.00307 31.05684 31.14186 31.23749 31.33625 31.37189 31.37378 31.36252 31.35628 31.36251 31.36748 31.38747 31.40747 31.41564 31.44189 31.47318 31.51128 31.53687 31.55064 31.54126 31.52818 31.61943 31.72006 31.82939 31.91314 31.92064 31.90688 31.89379 31.89128 31.88126 31.8769 31.87253 31.86379 31.86192 31.86566 31.86192 31.86192 31.86628 31.86628 31.88191 31.91631 31.96567 32.10129 32.25879 32.41189 32.54626 32.61002 32.62314 32.64566 32.6563 32.67752 32.70687 32.71496 32.73934 32.75056 32.75747 32.8162 32.86369 32.94437 33.03561 33.10063 33.18879 33.26938 33.35188 33.41875 33.46375 33.48874 33.51377 33.5694 33.6619 33.73126 33.75871 33.7431 33.66748 33.61689 33.60316 33.57814 33.57689 33.57876 33.59627 33.65687 33.73438 33.8156 33.89621 33.96689 34.0225 34.07938 34.15437 34.24435 34.34749 34.44313 34.51438 34.56002 34.58249 34.58938 34.5894 34.58188 34.57064 34.56061 34.54185 34.54498 34.5931 34.67123 34.77749 34.8875 35.11251 35.32376 35.48876 35.63064 35.62378 35.60254 35.59629 35.59066 35.57817 35.56129 35.54129 35.49439 35.42125 35.35311 35.30497 35.28686 35.27687 35.27812 35.28376 35.30502 35.3694 35.42251 35.45876 35.45935 35.44436 35.45311 35.47625 35.52378 35.57001 35.59317 35.60066 35.60006 35.58818 35.56188 35.5225
25.09313 25.11315 25.09876 24.98563 24.89877 24.77751 24.69752 24.74817 24.80254 24.87252 24.88628 24.77315 24.66747 24.60998 24.61059 24.69684 24.77312 24.82564 24.82816 24.77126 24.66751 24.54376 24.38752 24.26317 24.2138 24.16631 24.18255 24.20879 24.19003 24.18814 24.14439 24.0544 23.97189 23.87001 23.80816 23.78943 23.78069 23.79572 23.81133 23.81627 23.82817 23.84941 23.89128 23.94315 23.97749 23.95561 23.89688 23.84191 23.78881 23.77382 23.76257 23.7663 23.77689 23.78872 23.8062 23.80433 23.78563 23.77064 23.75813 23.72748 23.71807 23.72182 23.70312 23.69379 23.66567 23.63694 23.63632 23.6388 23.65694 23.6519 23.64127 23.65751 23.68188 23.72815 23.77628 23.80441 23.8294 23.84127 23.88561 23.96062 24.04561 24.16183 24.24312 24.28624 24.35438 24.40318 24.4638 24.55442 24.65943 24.75631 24.88191 24.99817 25.12502 25.25501 25.35501 25.45186 25.49061 25.53186 25.56063 25.5844 25.60191 25.61063 25.62563 25.62876 25.63688 25.64188 25.63436 25.64248 25.65562 25.66941 25.68631 25.69441 25.69565 25.69498 25.69432 25.69059 25.68244 25.68244 25.68683 25.67559 25.66561 25.66438 25.66565 25.68062 25.69624 25.70622 25.71244 25.72684 25.74557 25.75429 25.7674 25.77177 25.76993 25.77183 25.76437 25.75751 25.75751 25.75751 25.76183 25.78557 25.79494 25.81621 25.82936 25.84683 25.86813 25.9044 25.95877 26.02005 26.10565 26.19315 26.31379 26.47566 26.69878 26.96562 27.21873 27.39562 27.48688 27.52378 27.54003 27.7025 27.96312 28.39063 28.92814 29.39377 29.78753 29.99878 30.07941 30.10378 30.12002 30.13877 30.16126 30.17503 30.18376 30.22936 30.29934 30.41249 30.55376 30.63129 30.67883 30.69381 30.66066 30.66624 30.72811 30.8156 30.9281 31.03498 31.10872 31.13749 31.15563 31.15189 31.12376 31.11001 31.08686 31.07871 31.06681 31.06244 31.10746 31.18061 31.26001 31.33501 31.36627 31.37001 31.37126 31.37627 31.38754 31.39191 31.41 31.43124 31.44126 31.47874 31.51691 31.54753 31.57374 31.58128 31.56627 31.5638 31.65318 31.75317 31.86251 31.93874 31.94561 31.92997 31.91813 31.91376 31.90063 31.89316 31.88066 31.86815 31.86192 31.86192 31.86192 31.86192 31.89315 31.91126 31.9619 32.02941 32.10252 32.20003 32.30504 32.40128 32.48378 32.54754 32.56628 32.58816 32.60254 32.61564 32.63625 32.6406 32.65559 32.66808 32.68374 32.74496 32.81619 32.92185 33.02245 33.08123 33.14752 33.20377 33.27816 33.35814 33.41628 33.45688 33.49002 33.5444 33.63564 33.70626 33.73059 33.71811 33.64436 33.59688 33.58252 33.56315 33.56877 33.56502 33.58689 33.64124 33.71249 33.78934 33.85933 33.92188 33.96749 34.01501 34.08876 34.19373 34.30813 34.4269 34.52377 34.57191 34.59251 34.57874 34.54812 34.51936 34.49997 34.49809 34.4931 34.50998 34.57312 34.66 34.76749 34.86436 35.10059 35.31246 35.48308 35.64621 35.62687 35.60501 35.59876 35.59002 35.57502 35.55441 35.53064 35.48375 35.41811 35.3531 35.31186 35.30627 35.29626 35.30377 35.30813 35.31688 35.37689 35.42937 35.46376 35.46499 35.45061 35.45874 35.48626 35.54128 35.59126 35.61565 35.62188 35.61566 35.60505 35.57251 35.53813
25.33815 25.37566 25.40752 25.33126 25.25566 25.1113 24.98379 25.00381 25.05129 25.1594 25.19818 25.0613 24.91626 24.83001 24.79811 24.87999 24.98064 25.02127 25.02691 24.94876 24.79812 24.64187 24.45437 24.3294 24.31566 24.28129 24.35628 24.40941 24.39441 24.41941 24.34192 24.24253 24.14438 24.01562 23.92374 23.87939 23.84756 23.8357 23.83881 23.82815 23.83629 23.86379 23.92629 23.98254 24.00562 23.96811 23.89126 23.83814 23.79001 23.77878 23.75127 23.73439 23.73563 23.73809 23.75994 23.7537 23.73686 23.73249 23.72624 23.7081 23.70121 23.69184 23.66125 23.64629 23.60755 23.57631 23.56507 23.56381 23.59382 23.6163 23.65628 23.71251 23.77311 23.84687 23.92501 23.99376 24.04691 24.09068 24.16252 24.24567 24.35563 24.47996 24.56623 24.62309 24.68936 24.74129 24.78818 24.85444 24.93507 25.02194 25.14941 25.28004 25.40563 25.50935 25.56436 25.61059 25.61308 25.62433 25.64058 25.64997 25.65311 25.65811 25.66562 25.66564 25.67314 25.67566 25.67188 25.67811 25.69 25.69939 25.71004 25.71002 25.70938 25.7056 25.70183 25.70184 25.69307 25.69308 25.69496 25.68749 25.66874 25.66438 25.66438 25.67499 25.69812 25.7175 25.72934 25.74497 25.76431 25.77116 25.77616 25.77803 25.77306 25.77181 25.77121 25.76623 25.76749 25.77062 25.78434 25.82372 25.85245 25.88622 25.92249 25.94746 25.97936 26.02751 26.08626 26.18068 26.30568 26.45504 26.63443 26.82129 27.03129 27.24376 27.4075 27.50502 27.54877 27.58066 27.63626 27.86436 28.20559 28.64873 29.18874 29.61124 29.93813 30.11499 30.17124 30.18749 30.20936 30.24251 30.26749 30.28624 30.29499 30.33873 30.40436 30.51001 30.6294 30.68504 30.72444 30.72882 30.69191 30.70627 30.76189 30.84374 30.95936 31.06373 31.14311 31.1875 31.21313 31.21938 31.20062 31.18999 31.17124 31.16748 31.15746 31.15622 31.18808 31.22746 31.27687 31.32124 31.34691 31.3619 31.37627 31.39628 31.41253 31.42066 31.44502 31.46813 31.47501 31.51498 31.55188 31.57812 31.6156 31.62064 31.60313 31.60065 31.67066 31.76816 31.87 31.94937 31.96749 31.95622 31.95186 31.94687 31.92813 31.91376 31.89813 31.88001 31.86192 31.86192 31.86938 31.90063 31.95313 31.99936 32.07813 32.16251 32.24187 32.31313 32.37188 32.42311 32.46748 32.51126 32.52751 32.55378 32.56752 32.57188 32.57186 32.55561 32.5556 32.56871 32.59622 32.65995 32.75056 32.86559 32.96371 33.02501 33.07941 33.12504 33.20441 33.29127 33.36065 33.41876 33.46252 33.51751 33.61001 33.68251 33.70999 33.71375 33.65063 33.60314 33.58752 33.56377 33.57376 33.58438 33.60375 33.65186 33.71186 33.76933 33.82871 33.88187 33.91624 33.94813 34.02313 34.14623 34.27501 34.41878 34.5419 34.59567 34.61375 34.58561 34.51749 34.45935 34.4181 34.41936 34.4406 34.48373 34.57436 34.66936 34.77436 34.8681 35.10434 35.32246 35.50122 35.66749 35.63751 35.60065 35.57752 35.55316 35.53253 35.50752 35.48188 35.44247 35.38934 35.34373 35.31937 35.31939 35.31689 35.32748 35.3306 35.33686 35.38748 35.42934 35.4556 35.45372 35.44061 35.45313 35.48751 35.54874 35.60434 35.62934 35.63558 35.6281 35.61376 35.57688 35.54188
25.94253 25.98503 26.04252 25.97313 25.88064 25.70442 25.5313 25.51445 25.50567 25.58815 25.61377 25.41376 25.24561 25.13749 25.06623 25.17501 25.25002 25.22124 25.20128 25.07437 24.89375 24.75126 24.55126 24.44754 24.48315 24.50878 24.64564 24.72001 24.71193 24.70756 24.60006 24.48566 24.37374 24.23561 24.12311 24.07125 24.02629 24.01632 24.04445 24.02443 24.03819 24.08567 24.1319 24.19252 24.20436 24.13623 24.01438 23.92377 23.84 23.78314 23.74376 23.70123 23.68249 23.67872 23.69432 23.69621 23.69936 23.72248 23.74562 23.74747 23.74557 23.70994 23.6412 23.62186 23.58564 23.58192 23.61943 23.65192 23.71818 23.78315 23.86188 23.94499 24.02621 24.11496 24.21186 24.30436 24.38001 24.44629 24.52877 24.60631 24.72566 24.82749 24.89501 24.93813 24.96189 24.99506 25.02254 25.06694 25.13132 25.22004 25.33004 25.4444 25.53938 25.59498 25.61874 25.63872 25.63371 25.63933 25.65306 25.66182 25.66996 25.67935 25.69251 25.70252 25.71191 25.71441 25.71438 25.71563 25.7219 25.72754 25.73006 25.72378 25.72314 25.71938 25.71436 25.71125 25.7006 25.70123 25.70123 25.70124 25.68249 25.67188 25.6725 25.67999 25.70563 25.73124 25.74995 25.76558 25.77744 25.77679 25.77056 25.77056 25.76623 25.76623 25.76623 25.76686 25.78564 25.81501 25.84 25.88688 25.93059 25.97811 26.03999 26.08369 26.13308 26.20809 26.31559 26.45627 26.61877 26.79314 26.96068 27.13567 27.30504 27.44316 27.53252 27.56441 27.58942 27.65379 27.77502 28.07562 28.47123 28.92001 29.44127 29.81628 30.09064 30.24874 30.28811 30.3131 30.34248 30.37687 30.40497 30.41871 30.43311 30.47373 30.53564 30.62566 30.70816 30.74379 30.76816 30.76442 30.74314 30.76313 30.80626 30.87748 30.98184 31.07809 31.15996 31.21999 31.25125 31.26314 31.25061 31.24311 31.23125 31.2356 31.23435 31.23685 31.26182 31.27247 31.28999 31.30313 31.31315 31.32876 31.35001 31.37689 31.39752 31.41755 31.45127 31.47565 31.48626 31.52309 31.55563 31.58063 31.61125 31.62754 31.61941 31.62377 31.69002 31.77252 31.86188 31.94563 31.97874 31.97745 31.98371 31.97372 31.94687 31.93252 31.92878 31.9263 31.91441 31.91693 31.92441 31.96126 32.02937 32.10433 32.19996 32.28496 32.36372 32.40686 32.43499 32.46061 32.48122 32.50752 32.51377 32.52691 32.53755 32.53316 32.52314 32.50126 32.49062 32.49998 32.52935 32.58873 32.6731 32.78059 32.86561 32.9225 32.96939 33.02004 33.11441 33.21941 33.31004 33.38315 33.43441 33.4875 33.57188 33.64625 33.67873 33.69687 33.65873 33.61373 33.59438 33.56375 33.58374 33.62624 33.65686 33.70873 33.75123 33.78122 33.83933 33.89561 33.93 33.9575 34.01878 34.13814 34.26752 34.41626 34.56124 34.62937 34.65061 34.61874 34.53124 34.45626 34.41373 34.42124 34.46123 34.52873 34.6231 34.71623 34.80749 34.89246 35.1287 35.34806 35.5362 35.69308 35.62999 35.56937 35.52437 35.49064 35.49125 35.48313 35.46873 35.42997 35.37685 35.33373 35.31126 35.32376 35.33252 35.35188 35.36497 35.37561 35.42061 35.44309 35.44999 35.43873 35.42623 35.45125 35.49502 35.55624 35.60809 35.62996 35.63868 35.63496 35.62311 35.58374 35.54937
26.79628 26.84253 26.92375 26.87373 26.80123 26.63938 26.40941 26.35068 26.25941 26.25377 26.24813 25.99188 25.79876 25.65064 25.53439 25.59754 25.61004 25.50313 25.41315 25.20376 24.99002 24.84693 24.65693 24.61192 24.67254 24.73564 24.90064 24.97941 24.98318 24.96507 24.85131 24.73627 24.61751 24.49313 24.37627 24.32065 24.27569 24.27007 24.33256 24.32632 24.34506 24.4138 24.46127 24.53374 24.58122 24.51999 24.38316 24.28506 24.12753 23.96689 23.85251 23.71873 23.65561 23.63935 23.63995 23.65622 23.69812 23.75874 23.82626 23.85561 23.85499 23.82809 23.77686 23.76813 23.74814 23.76754 23.82503 23.89251 24.00501 24.11125 24.21938 24.31814 24.41499 24.51811 24.62248 24.72936 24.80814 24.86818 24.93068 24.97444 25.04938 25.09247 25.12061 25.13622 25.12814 25.14191 25.14939 25.17629 25.22316 25.3119 25.41443 25.5119 25.59628 25.63374 25.64873 25.65934 25.65869 25.65994 25.66491 25.67366 25.68054 25.69309 25.71187 25.72876 25.73628 25.73939 25.74063 25.73876 25.74564 25.74753 25.74442 25.73503 25.73504 25.73191 25.72627 25.72002 25.70561 25.70749 25.7106 25.72123 25.71186 25.70123 25.70123 25.70497 25.72496 25.74495 25.75993 25.76745 25.77372 25.77246 25.77056 25.77373 25.77561 25.77687 25.78498 25.79873 25.82998 25.86935 25.90312 25.95939 26.01876 26.08751 26.18313 26.27496 26.37432 26.49245 26.62994 26.77813 26.93189 27.09626 27.23752 27.36876 27.46566 27.53131 27.56819 27.57882 27.62319 27.74004 27.93877 28.31686 28.77184 29.23749 29.72377 30.03753 30.25566 30.37938 30.41249 30.44998 30.48747 30.52186 30.54371 30.55306 30.57245 30.60933 30.66749 30.74252 30.78502 30.79814 30.80001 30.78252 30.78126 30.81003 30.85065 30.92061 31.00935 31.09058 31.16809 31.22626 31.25753 31.27066 31.26376 31.25936 31.26061 31.27623 31.28498 31.29812 31.31498 31.3031 31.29248 31.28249 31.28375 31.30751 31.34316 31.37564 31.39691 31.41694 31.44629 31.46692 31.47692 31.51063 31.54253 31.56817 31.60566 31.63569 31.6388 31.64939 31.70441 31.77566 31.85628 31.94627 31.98875 31.9956 32.00999 32.00124 31.97563 31.96626 31.98375 32.00877 32.02564 32.04253 32.04502 32.07811 32.14811 32.23182 32.33807 32.42244 32.48994 32.51995 32.52371 32.52185 32.51873 32.52251 32.51502 32.51315 32.51504 32.50316 32.48751 32.47876 32.4706 32.46873 32.48436 32.50499 32.56063 32.64935 32.72686 32.79062 32.84436 32.91316 33.02942 33.15692 33.26818 33.3544 33.40753 33.45688 33.53814 33.61502 33.665 33.70127 33.68001 33.63437 33.60751 33.56748 33.58622 33.64622 33.67747 33.72624 33.76622 33.78749 33.84935 33.9225 33.96689 34.00188 34.04939 34.1475 34.26064 34.40188 34.5575 34.64376 34.67376 34.64563 34.56313 34.48376 34.44749 34.45312 34.50249 34.58435 34.67373 34.76435 34.83811 34.95623 35.18684 35.40684 35.59872 35.70496 35.63624 35.56749 35.51623 35.47997 35.47997 35.47623 35.46309 35.41996 35.36124 35.31436 35.2975 35.32625 35.34938 35.37811 35.39807 35.41682 35.46995 35.48808 35.48436 35.45373 35.43061 35.45624 35.50185 35.56746 35.61555 35.63992 35.64616 35.64494 35.63435 35.59187 35.55688
27.83252 27.85316 27.89626 27.88874 27.86434 27.75375 27.56192 27.46254 27.2844 27.1569 27.06937 26.76252 26.53755 26.37066 26.19816 26.18629 26.1219 25.90936 25.72937 25.42999 25.17124 25.02567 24.85567 24.85506 24.94193 25.02188 25.18999 25.25626 25.25189 25.22318 25.08381 24.955 24.82126 24.70439 24.61503 24.56816 24.53943 24.54941 24.63191 24.65694 24.70631 24.80067 24.84501 24.92125 24.98623 24.95751 24.86004 24.76693 24.58377 24.32128 24.11566 23.90441 23.78003 23.75002 23.72624 23.73063 23.78564 23.88001 23.99751 24.07312 24.09311 24.06997 24.02251 24.02876 24.03378 24.08069 24.16816 24.26003 24.39626 24.52936 24.65498 24.76686 24.86249 24.94812 25.02062 25.08249 25.11501 25.13379 25.15129 25.16066 25.20623 25.22808 25.24183 25.24683 25.22438 25.22938 25.235 25.26065 25.30311 25.37999 25.47377 25.55939 25.63878 25.6675 25.67562 25.67247 25.66747 25.66873 25.66995 25.67933 25.68557 25.70247 25.72436 25.75561 25.76502 25.76626 25.77001 25.75875 25.7656 25.76375 25.75439 25.74314 25.73754 25.73629 25.73191 25.72878 25.72437 25.73187 25.74374 25.77001 25.77502 25.77124 25.76686 25.75621 25.76684 25.77686 25.78371 25.78623 25.78312 25.78311 25.79003 25.80312 25.81311 25.82437 25.84061 25.86249 25.90562 25.94935 25.98999 26.06315 26.15752 26.29191 26.44127 26.57809 26.7037 26.81431 26.94433 27.0775 27.20187 27.3225 27.40061 27.4625 27.49191 27.51443 27.56257 27.59506 27.70882 27.89128 28.16999 28.62183 29.08869 29.5631 29.99064 30.24254 30.41691 30.50252 30.52187 30.55624 30.59499 30.62061 30.63809 30.65619 30.68183 30.72559 30.78876 30.84253 30.85503 30.84752 30.82877 30.80816 30.82376 30.86441 30.91129 30.97751 31.04999 31.11372 31.17684 31.22874 31.26002 31.26814 31.2625 31.25936 31.26498 31.29248 31.31873 31.34686 31.35309 31.32121 31.28684 31.25312 31.25189 31.28316 31.32005 31.35626 31.37812 31.40063 31.43126 31.45255 31.47005 31.49941 31.53191 31.55691 31.59191 31.63193 31.64754 31.66751 31.72066 31.78378 31.85064 31.93377 31.98126 31.99939 32.02502 32.02813 32.01376 32.01374 32.06437 32.12128 32.17001 32.20251 32.19503 32.2056 32.24935 32.31809 32.40745 32.47869 32.53496 32.55934 32.55434 32.54686 32.53872 32.53188 32.52126 32.51315 32.50441 32.49504 32.48003 32.46626 32.46 32.44189 32.43 32.42814 32.43815 32.4925 32.56316 32.63566 32.71689 32.81192 32.95253 33.09691 33.22317 33.32251 33.37627 33.42062 33.50001 33.58312 33.64685 33.69749 33.69123 33.64312 33.61127 33.57061 33.57623 33.63746 33.66746 33.71309 33.76684 33.7956 33.87121 33.96125 34.01377 34.05751 34.08691 34.16066 34.26003 34.37626 34.5256 34.61559 34.65434 34.65187 34.59939 34.5419 34.51128 34.51939 34.56624 34.64122 34.71869 34.7912 34.84684 34.96498 35.19812 35.41751 35.61628 35.715 35.64249 35.57687 35.52123 35.48 35.48123 35.4781 35.46747 35.42122 35.36499 35.32499 35.31189 35.34125 35.36125 35.38622 35.41492 35.44931 35.50994 35.51996 35.5025 35.46126 35.43439 35.46376 35.51187 35.56498 35.60931 35.63493 35.64181 35.65681 35.64746 35.60499 35.56184
28.80751 28.80063 28.82246 28.83871 28.89054 28.88806 28.79123 28.71686 28.49688 28.24313 28.06937 27.73627 27.50504 27.35378 27.15377 27.08002 26.90063 26.60184 26.35872 26.02436 25.76251 25.5907 25.4207 25.39569 25.42379 25.49124 25.58873 25.63688 25.65627 25.62879 25.48194 25.28876 25.08064 24.90754 24.82443 24.79944 24.81008 24.85692 24.96318 25.01007 25.07319 25.18068 25.20437 25.29247 25.36998 25.36188 25.2919 25.19379 25.00439 24.70188 24.46501 24.22313 24.06565 24.02003 23.98126 23.97439 24.02314 24.12814 24.26189 24.35752 24.41189 24.41751 24.39816 24.42502 24.4469 24.50629 24.60874 24.71311 24.84248 24.94998 25.03749 25.11 25.17 25.22812 25.26749 25.29187 25.29313 25.27687 25.26813 25.26 25.28185 25.29559 25.3 25.30311 25.28814 25.30565 25.33124 25.37002 25.40999 25.465 25.53129 25.59378 25.65694 25.67815 25.68438 25.67123 25.66872 25.67499 25.67936 25.69936 25.70371 25.72121 25.74686 25.77873 25.79001 25.78999 25.78872 25.77686 25.78247 25.78125 25.76751 25.75189 25.74192 25.73754 25.73942 25.74316 25.75 25.76812 25.79062 25.82813 25.84813 25.85375 25.84936 25.83496 25.83934 25.83371 25.83119 25.82497 25.81124 25.81436 25.82816 25.85251 25.87811 25.90376 25.92874 25.95627 26.00562 26.06997 26.14435 26.25438 26.38627 26.54879 26.71065 26.85123 26.97871 27.07805 27.18994 27.28183 27.34932 27.39997 27.41184 27.44436 27.46378 27.50629 27.60568 27.70131 27.89882 28.14004 28.45814 28.93248 29.35621 29.79624 30.17003 30.36505 30.50942 30.58316 30.58063 30.59749 30.62311 30.62809 30.65557 30.68496 30.72932 30.77934 30.84439 30.88252 30.87566 30.87127 30.84626 30.83312 30.87123 30.91312 30.97062 31.04374 31.10373 31.15621 31.2056 31.24249 31.27189 31.28003 31.27188 31.26812 31.27498 31.30309 31.34122 31.37434 31.37436 31.33624 31.28562 31.24564 31.23938 31.27378 31.31442 31.34625 31.36562 31.38062 31.40124 31.41816 31.43817 31.4644 31.49942 31.53006 31.56628 31.61881 31.64692 31.67377 31.73193 31.78691 31.84003 31.91502 31.96127 31.99002 32.035 32.06125 32.05935 32.06874 32.13439 32.21189 32.28503 32.33313 32.32002 32.30062 32.30938 32.34499 32.40621 32.47122 32.52936 32.56186 32.57249 32.56438 32.55687 32.54877 32.53626 32.52626 32.5119 32.50502 32.49375 32.47499 32.46186 32.42814 32.38689 32.3719 32.35879 32.39 32.45878 32.52502 32.62312 32.74128 32.89564 33.05127 33.18004 33.27751 33.32688 33.37562 33.46438 33.55437 33.61873 33.66748 33.65685 33.60686 33.58377 33.55376 33.555 33.60624 33.63061 33.67747 33.74934 33.80185 33.89118 33.98373 34.03249 34.07124 34.09253 34.15567 34.25065 34.35749 34.48934 34.56805 34.60744 34.62374 34.61064 34.58629 34.5819 34.59687 34.63374 34.69371 34.73748 34.78435 34.82121 34.95248 35.19872 35.42685 35.63499 35.72497 35.65186 35.58875 35.53874 35.49812 35.50185 35.50185 35.49309 35.44247 35.38809 35.34371 35.32373 35.3481 35.35999 35.38248 35.41431 35.46117 35.52557 35.53809 35.52376 35.47751 35.45064 35.47815 35.52189 35.57438 35.61996 35.65057 35.66306 35.67805 35.66494 35.61621 35.56181
29.38063 29.38999 29.43618 29.53558 29.7143 29.83119 29.82686 29.79747 29.59999 29.34874 29.18124 28.90814 28.70504 28.57003 28.36877 28.2094 27.97938 27.63622 27.31934 26.93247 26.65186 26.43441 26.26067 26.20378 26.14126 26.12748 26.12123 26.11374 26.10312 26.09126 25.95065 25.73062 25.48752 25.27317 25.16068 25.09883 25.10257 25.13379 25.20006 25.26004 25.30816 25.39192 25.47436 25.57998 25.67186 25.67562 25.60941 25.51194 25.33129 25.04876 24.78688 24.55251 24.39939 24.34815 24.315 24.2975 24.33189 24.4244 24.54564 24.64691 24.72564 24.77562 24.82002 24.86813 24.89251 24.93002 24.97937 25.04811 25.13748 25.20811 25.26123 25.30625 25.34189 25.37937 25.39936 25.40311 25.39122 25.36561 25.35184 25.35247 25.36184 25.36933 25.36686 25.36436 25.37313 25.40563 25.44874 25.49124 25.51558 25.54999 25.59065 25.6319 25.67319 25.68128 25.68501 25.66872 25.67061 25.68624 25.69376 25.71998 25.72871 25.7437 25.76682 25.79184 25.7975 25.79498 25.78996 25.78057 25.7868 25.79185 25.78249 25.76376 25.75129 25.73941 25.74253 25.76066 25.78126 25.81061 25.84187 25.88812 25.92061 25.94248 25.95434 25.94368 25.9462 25.93558 25.92495 25.90873 25.88688 25.88376 25.89754 25.9319 25.98063 26.02437 26.06997 26.12375 26.18497 26.27559 26.37933 26.51122 26.65499 26.82001 26.96378 27.08249 27.18936 27.24557 27.30308 27.33621 27.35243 27.37373 27.38684 27.42623 27.46314 27.53439 27.68254 27.85817 28.14506 28.44816 28.78376 29.23874 29.60246 29.98436 30.30439 30.45315 30.57628 30.63564 30.62311 30.62248 30.63373 30.63184 30.65871 30.68934 30.73869 30.79248 30.86374 30.90874 30.90252 30.89689 30.86314 30.85313 30.89562 30.95189 31.02813 31.10563 31.16124 31.19809 31.22874 31.25 31.27128 31.28003 31.27625 31.27686 31.28871 31.31433 31.35497 31.38811 31.38938 31.36188 31.31749 31.28313 31.27626 31.31066 31.34818 31.37816 31.39878 31.40877 31.42439 31.44191 31.45881 31.48253 31.51316 31.54066 31.57999 31.62816 31.65816 31.6844 31.73443 31.78753 31.84502 31.91376 31.96437 32.00126 32.04686 32.07936 32.07808 32.08871 32.16246 32.25933 32.34873 32.40246 32.38188 32.34814 32.34064 32.36189 32.40375 32.45876 32.51564 32.5544 32.58501 32.5825 32.57375 32.55813 32.53688 32.5275 32.51561 32.51686 32.51434 32.50186 32.48561 32.44627 32.38565 32.34877 32.33066 32.35624 32.43253 32.50691 32.61065 32.73444 32.89127 33.0494 33.17628 33.26937 33.31312 33.35811 33.45313 33.54501 33.6069 33.65064 33.62627 33.58003 33.56691 33.54626 33.53438 33.54625 33.55187 33.59749 33.69435 33.78935 33.89494 33.98245 34.02184 34.04684 34.06748 34.13375 34.23687 34.34623 34.45559 34.51558 34.54683 34.58185 34.60686 34.61188 34.6125 34.6125 34.62439 34.65186 34.67812 34.71186 34.74371 34.89935 35.16684 35.40936 35.63375 35.72249 35.66938 35.62563 35.58561 35.54937 35.52999 35.50998 35.48687 35.43312 35.38 35.34062 35.33125 35.35249 35.36623 35.3881 35.41556 35.47181 35.53683 35.55498 35.54063 35.49187 35.46251 35.48627 35.53313 35.59 35.64433 35.68244 35.68868 35.69367 35.67305 35.61368 35.5568
29.68376 29.68499 29.75497 29.91312 30.15809 30.33247 30.39749 30.39998 30.27623 30.105 30.02562 29.88939 29.81692 29.78754 29.62628 29.47813 29.23499 28.88681 28.56555 28.17682 27.87934 27.63065 27.43004 27.28691 27.13376 27.02934 26.91872 26.85309 26.76998 26.71561 26.54501 26.29312 26.04377 25.79628 25.64941 25.53631 25.50503 25.53378 25.55316 25.57127 25.57065 25.56252 25.65748 25.77373 25.83624 25.83624 25.72562 25.57626 25.41937 25.21061 25.01624 24.88625 24.79004 24.74316 24.71064 24.66499 24.65999 24.71625 24.80501 24.88879 24.97939 25.03939 25.08127 25.12125 25.13936 25.17374 25.21186 25.26873 25.32438 25.35751 25.38625 25.41562 25.43687 25.46561 25.48124 25.47874 25.46684 25.43686 25.41871 25.42059 25.42934 25.45244 25.46496 25.47747 25.50122 25.53373 25.57561 25.61246 25.63308 25.64499 25.66376 25.67941 25.68381 25.68066 25.67563 25.66872 25.66872 25.69248 25.70626 25.73499 25.74809 25.7587 25.77744 25.79434 25.7975 25.79187 25.78748 25.78433 25.78931 25.79996 25.78811 25.76186 25.74876 25.73688 25.74811 25.77875 25.81436 25.84748 25.88375 25.93874 25.97935 26.02559 26.05997 26.06433 26.07999 26.07999 26.06747 26.05437 26.02438 26.00628 26.01194 26.04691 26.10314 26.16999 26.24811 26.33314 26.42251 26.53001 26.65061 26.77934 26.91184 27.05935 27.1756 27.25748 27.32187 27.33436 27.33937 27.3281 27.34683 27.3875 27.43189 27.50126 27.55065 27.61938 27.79751 28.04502 28.41565 28.79691 29.1625 29.56564 29.84126 30.13876 30.38378 30.51314 30.62939 30.66999 30.64747 30.63497 30.63498 30.63997 30.6731 30.70249 30.74684 30.79749 30.86873 30.91435 30.92125 30.92563 30.89128 30.89439 30.93439 30.99064 31.07624 31.14502 31.19938 31.23061 31.2475 31.26311 31.28126 31.30688 31.31625 31.32126 31.325 31.32688 31.36063 31.39001 31.40002 31.39001 31.35627 31.33502 31.33313 31.36191 31.39504 31.42439 31.44876 31.46061 31.47498 31.48749 31.49939 31.51874 31.54624 31.57312 31.59996 31.63562 31.65376 31.67252 31.72131 31.77317 31.83004 31.89564 31.94938 31.98876 32.03623 32.07249 32.07497 32.09559 32.18248 32.28997 32.38249 32.43374 32.41002 32.36316 32.35252 32.36876 32.39437 32.44689 32.5044 32.54817 32.59191 32.59875 32.58938 32.56814 32.54127 32.53252 32.52498 32.54309 32.56121 32.55309 32.53312 32.48441 32.4044 32.37253 32.3569 32.38435 32.46689 32.53876 32.65503 32.77943 32.9294 33.07565 33.18378 33.26501 33.30437 33.34624 33.43936 33.53685 33.59063 33.62312 33.59126 33.54503 33.54066 33.53565 33.52313 33.51001 33.51186 33.55935 33.66686 33.78622 33.8937 33.96496 33.98434 33.99121 34.01373 34.09563 34.22001 34.33748 34.43309 34.46681 34.49369 34.55811 34.61126 34.64065 34.63939 34.61439 34.60065 34.60563 34.61627 34.63374 34.67435 34.7981 35.08996 35.35249 35.58812 35.73062 35.67437 35.62938 35.57999 35.53876 35.51501 35.49311 35.47187 35.42561 35.38123 35.35123 35.34624 35.36561 35.37186 35.38871 35.41746 35.47185 35.53874 35.55813 35.54751 35.5075 35.48126 35.50627 35.54813 35.59814 35.65249 35.68623 35.69622 35.69806 35.67494 35.60932 35.54369
29.83313 29.81124 29.87247 30.01559 30.23496 30.41558 30.49494 30.53808 30.51184 30.44685 30.45374 30.48876 30.54314 30.62817 30.59941 30.49564 30.31437 30.04307 29.78682 29.48059 29.23376 29.01691 28.8194 28.62189 28.38059 28.1537 27.91621 27.75872 27.62937 27.53749 27.35876 27.09125 26.81126 26.51566 26.30878 26.14129 26.07126 26.09189 26.07941 26.05129 25.9863 25.85754 25.91001 26.00184 26.00434 25.97746 25.79559 25.60938 25.46936 25.34497 25.22934 25.15871 25.105 25.04749 25.02561 24.97934 24.95809 24.98812 25.03376 25.09816 25.17939 25.23876 25.28562 25.30123 25.30996 25.34121 25.37247 25.41811 25.45625 25.47252 25.48188 25.50126 25.51938 25.53872 25.55622 25.56434 25.5612 25.54373 25.52996 25.52872 25.53437 25.55809 25.57811 25.59751 25.62687 25.65563 25.69126 25.72247 25.73936 25.74314 25.74564 25.74441 25.72816 25.71753 25.70686 25.69249 25.70624 25.72622 25.73439 25.75312 25.76183 25.76559 25.78058 25.78435 25.785 25.77812 25.77746 25.78557 25.78496 25.79435 25.77938 25.74689 25.73876 25.72939 25.74374 25.77375 25.80687 25.83935 25.88375 25.95311 26.01246 26.08747 26.14933 26.19121 26.22997 26.24621 26.24808 26.23811 26.20626 26.18191 26.17944 26.21503 26.2969 26.38748 26.48811 26.58439 26.67126 26.77879 26.89 26.99685 27.08434 27.17247 27.25558 27.32436 27.39936 27.43874 27.46064 27.46686 27.52686 27.60812 27.67376 27.73189 27.74379 27.77629 27.93754 28.23253 28.62939 29.06437 29.43373 29.76 30.00188 30.21751 30.42128 30.55876 30.65375 30.68872 30.66559 30.64557 30.64621 30.6556 30.69061 30.72127 30.765 30.81314 30.88063 30.92312 30.94 30.95499 30.93063 30.94561 30.98061 31.03186 31.11561 31.17439 31.225 31.25749 31.27501 31.29812 31.32688 31.36376 31.36875 31.36563 31.35376 31.33438 31.36 31.38439 31.40753 31.41941 31.4113 31.41128 31.41625 31.44376 31.46814 31.49314 31.51939 31.52876 31.54372 31.55498 31.55751 31.56874 31.58626 31.60876 31.62436 31.64815 31.65626 31.6644 31.70755 31.75254 31.80568 31.87439 31.93188 31.97874 32.03185 32.06499 32.06624 32.08684 32.17559 32.28932 32.38184 32.43436 32.41002 32.35754 32.35252 32.36125 32.38625 32.42875 32.48499 32.54628 32.60627 32.6325 32.62689 32.59002 32.54628 32.52941 32.52687 32.5681 32.6162 32.63307 32.61371 32.56562 32.48313 32.44816 32.45253 32.48497 32.56561 32.64185 32.75188 32.87128 33.00002 33.12626 33.22126 33.28751 33.32751 33.36189 33.44063 33.53249 33.58501 33.61499 33.59063 33.54064 33.53378 33.53002 33.52438 33.51814 33.51813 33.56687 33.66813 33.78124 33.87872 33.93249 33.93436 33.92874 33.96684 34.06873 34.21061 34.35434 34.44374 34.46809 34.49185 34.56624 34.62686 34.65874 34.64936 34.59311 34.56128 34.55439 34.56316 34.57752 34.62811 34.75809 35.05993 35.33746 35.57497 35.72561 35.66939 35.62188 35.57312 35.53314 35.51185 35.4931 35.47873 35.43436 35.38998 35.35748 35.34686 35.36497 35.37623 35.39371 35.41811 35.47001 35.53252 35.55504 35.5519 35.52686 35.50687 35.53501 35.57438 35.62439 35.67625 35.70499 35.71497 35.70307 35.67307 35.60559 35.53936
29.92502 29.93251 29.99125 30.10061 30.23875 30.34122 30.37061 30.38875 30.38436 30.40751 30.49562 30.64186 30.79751 30.92941 30.99692 30.97252 30.91251 30.80809 30.65372 30.43374 30.25625 30.08377 29.92312 29.74501 29.48623 29.22559 28.97185 28.78059 28.62435 28.48748 28.26436 27.98499 27.72314 27.44191 27.21316 27.02378 26.90623 26.92123 26.88499 26.80501 26.67816 26.3969 26.35376 26.36623 26.30374 26.26374 26.08498 25.87689 25.73999 25.63185 25.51248 25.47059 25.40311 25.32435 25.28621 25.25682 25.24434 25.28374 25.31313 25.35814 25.41875 25.42747 25.44934 25.43308 25.42556 25.47122 25.50437 25.55939 25.61566 25.63126 25.65686 25.6581 25.65061 25.65748 25.66312 25.66436 25.66246 25.65939 25.65248 25.66311 25.67061 25.69181 25.71434 25.73561 25.76813 25.78751 25.80939 25.82623 25.82871 25.82937 25.82562 25.81192 25.78691 25.77005 25.75562 25.74624 25.75876 25.77184 25.76188 25.75937 25.76059 25.75435 25.76497 25.77061 25.76438 25.75375 25.75872 25.7687 25.77122 25.78061 25.76063 25.72751 25.72438 25.72812 25.75874 25.79313 25.82686 25.85184 25.89062 25.96373 26.0331 26.12311 26.21248 26.28309 26.34245 26.38809 26.40808 26.41249 26.4019 26.38879 26.38943 26.42816 26.5063 26.59562 26.69812 26.78876 26.87064 26.95315 27.03001 27.11311 27.17431 27.25183 27.34682 27.43873 27.54814 27.64064 27.71193 27.76065 27.85626 27.95564 28.01875 28.04188 28.00002 27.97626 28.09939 28.37751 28.74436 29.15499 29.53747 29.83937 30.09626 30.31314 30.47316 30.60375 30.68686 30.71683 30.69995 30.68122 30.6725 30.67501 30.69628 30.72252 30.77001 30.83379 30.91314 30.96252 30.99001 30.99873 30.97436 30.99936 31.02999 31.08125 31.15313 31.19001 31.22563 31.25376 31.27377 31.305 31.3425 31.38625 31.39251 31.38751 31.3694 31.33938 31.35749 31.38503 31.42252 31.45754 31.47629 31.49064 31.50186 31.52311 31.53812 31.56188 31.58876 31.60439 31.6225 31.63188 31.63189 31.63625 31.64687 31.66249 31.65873 31.66186 31.65498 31.64999 31.69438 31.74564 31.80505 31.87691 31.93438 31.97563 32.01625 32.03378 32.02941 32.05186 32.15059 32.28306 32.3787 32.42686 32.39875 32.35252 32.35252 32.36625 32.39626 32.42813 32.47689 32.54504 32.61001 32.65126 32.64687 32.59314 32.5394 32.52687 32.52687 32.58873 32.66935 32.72621 32.73872 32.69563 32.61562 32.57754 32.58626 32.61936 32.69998 32.77933 32.87561 32.98375 33.09189 33.19939 33.28503 33.34253 33.38441 33.39251 33.44374 33.52745 33.57684 33.62061 33.61314 33.56254 33.54442 33.53565 33.52937 33.52502 33.53251 33.58688 33.68189 33.78437 33.87251 33.9169 33.91939 33.91939 33.95747 34.06496 34.21434 34.36435 34.45499 34.47937 34.50001 34.57873 34.64058 34.6712 34.65181 34.57684 34.53377 34.51628 34.52753 34.5469 34.60499 34.73246 35.04558 35.32748 35.56247 35.71499 35.64938 35.59998 35.55497 35.52498 35.50808 35.49373 35.47811 35.43812 35.39437 35.36562 35.3625 35.37999 35.38749 35.40122 35.42625 35.47752 35.54254 35.56005 35.55816 35.53938 35.5225 35.55812 35.59061 35.63062 35.67875 35.69999 35.70624 35.69309 35.66309 35.5956 35.52936
30.07189 30.07752 30.10004 30.13875 30.18187 30.20809 30.20496 30.20499 30.20936 30.24438 30.33249 30.49124 30.64751 30.77815 30.87692 30.91503 30.95003 30.97624 30.95061 30.84374 30.72999 30.61937 30.53187 30.41187 30.2381 30.05746 29.86807 29.72308 29.59623 29.43936 29.18374 28.90499 28.66502 28.42191 28.25817 28.14065 28.04183 28.08494 28.04058 27.89374 27.71066 27.31002 27.10629 27.02125 26.88124 26.81499 26.69934 26.5081 26.37557 26.2937 26.15621 26.08809 25.99311 25.85121 25.75123 25.72809 25.75125 25.83566 25.87065 25.85442 25.82879 25.73314 25.67689 25.61812 25.57934 25.61185 25.72685 25.86311 26.00874 26.06623 26.07998 26.01686 25.92437 25.89499 25.83249 25.81122 25.79872 25.79439 25.79501 25.80752 25.81811 25.83682 25.85871 25.87498 25.89688 25.905 25.91064 25.91561 25.91186 25.90627 25.90125 25.88567 25.86753 25.8519 25.83 25.81249 25.81128 25.80938 25.78253 25.75878 25.73688 25.71937 25.72249 25.73312 25.74748 25.76061 25.78184 25.79682 25.79185 25.78061 25.74499 25.71564 25.71501 25.73064 25.7825 25.81812 25.85374 25.87246 25.90999 25.98187 26.05249 26.15001 26.24126 26.32561 26.39497 26.45623 26.49245 26.51937 26.53877 26.54502 26.56817 26.60564 26.67253 26.76188 26.85 26.91999 26.97563 27.02689 27.10751 27.21312 27.30931 27.40807 27.51679 27.63061 27.76876 27.91251 28.01944 28.10752 28.22813 28.33814 28.39936 28.38249 28.29689 28.21751 28.28689 28.51315 28.80625 29.15187 29.54249 29.84876 30.14753 30.40504 30.54067 30.66127 30.72001 30.73997 30.70997 30.68686 30.67562 30.6725 30.6894 30.72441 30.78565 30.87066 30.96128 31.00627 31.03689 31.04188 31.02749 31.06623 31.09686 31.13624 31.18813 31.20626 31.23064 31.24939 31.2644 31.30063 31.34249 31.39188 31.39815 31.39002 31.36755 31.34003 31.36312 31.39502 31.44626 31.49814 31.52753 31.54876 31.55999 31.58124 31.59999 31.62248 31.64498 31.65249 31.65623 31.66374 31.66 31.65936 31.67687 31.69061 31.675 31.66499 31.64559 31.62749 31.67874 31.74065 31.79569 31.87629 31.92628 31.95753 31.99689 32.00942 32.01129 32.03749 32.1456 32.28808 32.38808 32.44875 32.42625 32.36813 32.3644 32.38063 32.40626 32.4369 32.47815 32.55316 32.62689 32.68439 32.69062 32.6375 32.57688 32.54002 32.54187 32.63184 32.73809 32.81496 32.85059 32.81686 32.74374 32.7169 32.72689 32.75688 32.8275 32.88934 32.97872 33.07684 33.16998 33.26498 33.33624 33.38814 33.43438 33.43062 33.46375 33.53619 33.57307 33.62558 33.62686 33.57312 33.55253 33.5419 33.53376 33.53878 33.54814 33.59939 33.69503 33.78315 33.8669 33.91442 33.92065 33.92815 33.96689 34.06937 34.21874 34.3675 34.4675 34.5 34.52563 34.60687 34.6681 34.70121 34.67869 34.60054 34.55495 34.52999 34.53749 34.55752 34.62062 34.73309 35.04247 35.32186 35.54372 35.70996 35.64248 35.5912 35.55184 35.52372 35.51307 35.50434 35.49245 35.45809 35.41996 35.39248 35.38435 35.39498 35.39375 35.40435 35.43438 35.48751 35.55252 35.56315 35.56504 35.55003 35.53815 35.5819 35.60624 35.63625 35.67563 35.68564 35.69566 35.68561 35.65625 35.59251 35.52125
30.20936 30.20499 30.19189 30.18309 30.17873 30.17873 30.17873 30.17873 30.17873 30.18127 30.19874 30.30124 30.38874 30.4675 30.57814 30.61189 30.67253 30.74564 30.77377 30.75937 30.73063 30.6981 30.69309 30.65123 30.59059 30.51687 30.42124 30.33498 30.26937 30.16624 29.97936 29.8 29.61439 29.42442 29.29317 29.21816 29.15436 29.20996 29.20935 29.10874 28.95065 28.61064 28.31004 28.12939 27.93813 27.77063 27.69373 27.51999 27.42246 27.35373 27.19997 27.09309 26.87371 26.66431 26.50433 26.44808 26.51626 26.64067 26.6869 26.63379 26.55064 26.38006 26.24315 26.13252 26.07441 26.13934 26.31814 26.56939 26.80812 26.90686 26.93185 26.7706 26.57061 26.40389 26.26264 26.21011 26.16512 26.17499 26.14124 26.10253 26.065 26.02936 26.01251 26.02188 26.02815 26.02376 26.02564 26.02623 26.02436 26.02312 26.02122 26.00314 25.99562 25.98376 25.96126 25.92562 25.88754 25.85814 25.79567 25.75129 25.72 25.68812 25.68875 25.70499 25.72685 25.75623 25.77871 25.80558 25.80561 25.79124 25.76684 25.74249 25.74061 25.75688 25.81252 25.85127 25.88503 25.91373 25.97126 26.04126 26.11751 26.19379 26.25754 26.33499 26.39871 26.46873 26.51496 26.55313 26.59314 26.62689 26.67126 26.72126 26.78877 26.86561 26.93436 26.97808 27.0256 27.10185 27.23873 27.42186 27.57557 27.69497 27.78619 27.88999 28.03377 28.19937 28.34942 28.48 28.59748 28.68562 28.71308 28.64871 28.53437 28.43689 28.46441 28.62317 28.82378 29.06189 29.4269 29.75628 30.11877 30.44941 30.60316 30.70752 30.74063 30.75249 30.7106 30.68311 30.6725 30.6725 30.6794 30.72379 30.80066 30.89881 31.00318 31.05193 31.08004 31.07876 31.07499 31.11936 31.15246 31.18874 31.21688 31.22 31.22939 31.23751 31.24752 31.28188 31.32687 31.36376 31.36626 31.36001 31.3444 31.34312 31.37559 31.415 31.47249 31.52751 31.56564 31.58439 31.58939 31.60814 31.63126 31.64936 31.66746 31.67124 31.66874 31.68315 31.69004 31.69126 31.70251 31.71123 31.68561 31.66498 31.64307 31.62436 31.67561 31.74314 31.80196 31.87879 31.93314 31.97126 32.01686 32.03627 32.03502 32.04686 32.14121 32.28871 32.39683 32.46936 32.45437 32.39312 32.37814 32.38938 32.41314 32.43438 32.475 32.55939 32.65311 32.73812 32.77184 32.73373 32.67875 32.64439 32.6519 32.73812 32.84561 32.92059 32.95185 32.92372 32.86561 32.83627 32.85252 32.88941 32.94878 33.01499 33.09246 33.18246 33.25559 33.3306 33.39186 33.43376 33.4875 33.47311 33.49313 33.55495 33.58059 33.63873 33.64436 33.58814 33.56067 33.55005 33.54378 33.55941 33.57314 33.62751 33.71689 33.7919 33.87378 33.92066 33.93753 33.95626 34.00125 34.09375 34.2375 34.37501 34.47502 34.52626 34.55249 34.63247 34.69121 34.72369 34.71056 34.64431 34.59871 34.56749 34.56499 34.58438 34.64561 34.78057 35.08431 35.35618 35.57119 35.70681 35.64247 35.59122 35.55748 35.53436 35.52682 35.52056 35.50869 35.47558 35.44121 35.41624 35.40499 35.40749 35.41125 35.41811 35.44876 35.50124 35.54876 35.56001 35.56064 35.55188 35.54627 35.5844 35.60874 35.63438 35.66936 35.68312 35.69126 35.68122 35.65684 35.59184 35.51996
30.19436 30.2231 30.25501 30.26561 30.27499 30.26684 30.24811 30.24688 30.23374 30.2344 30.2381 30.25496 30.27122 30.27561 30.31688 30.35252 30.40628 30.47752 30.50689 30.49686 30.48871 30.46368 30.48932 30.50935 30.54124 30.59189 30.62064 30.62874 30.61937 30.56811 30.45934 30.37748 30.28 30.18002 30.11129 30.09066 30.07249 30.15622 30.17122 30.10309 29.9906 29.73684 29.47438 29.30001 29.15628 28.99318 28.9844 28.81814 28.69373 28.59686 28.40559 28.29123 28.01373 27.75434 27.53998 27.45872 27.55126 27.73441 27.80876 27.71253 27.59378 27.34258 27.08712 26.94962 26.87587 26.96704 27.22689 27.58249 27.90184 28.00871 28.00871 27.72496 27.37497 27.08567 26.90194 26.8588 26.85881 26.92063 26.90374 26.85314 26.80562 26.69436 26.57001 26.49686 26.37751 26.31937 26.27937 26.2425 26.24436 26.23061 26.22746 26.20749 26.21374 26.21752 26.19816 26.13938 26.03627 25.96626 25.85253 25.78379 25.74127 25.68438 25.68063 25.68938 25.70247 25.73872 25.77308 25.81058 25.83374 25.83937 25.83874 25.86436 25.88748 25.91624 25.97312 25.99689 26.03752 26.08938 26.17502 26.24876 26.31564 26.35503 26.38317 26.42437 26.46999 26.54313 26.56871 26.60312 26.63686 26.66434 26.71997 26.77876 26.82753 26.88691 26.94501 27.01307 27.12121 27.28244 27.53059 27.78811 27.99369 28.1181 28.16119 28.21501 28.31316 28.44688 28.58256 28.69251 28.76812 28.81252 28.80812 28.74372 28.65749 28.58875 28.61063 28.71816 28.84254 28.96942 29.32132 29.67319 30.07382 30.49255 30.66315 30.75752 30.78251 30.78502 30.72564 30.69502 30.67566 30.6725 30.6725 30.71127 30.80877 30.92565 31.04376 31.10004 31.12065 31.11062 31.11249 31.15623 31.19746 31.23749 31.25062 31.24625 31.23376 31.22939 31.22939 31.23749 31.27061 31.29937 31.31626 31.32313 31.32939 31.34687 31.38872 31.43436 31.49622 31.55435 31.58747 31.60748 31.60876 31.62938 31.66126 31.67499 31.69059 31.69374 31.6875 31.70376 31.71502 31.7175 31.72811 31.73495 31.71123 31.68809 31.67183 31.65812 31.7075 31.77441 31.82946 31.90194 31.95692 31.99691 32.04126 32.06377 32.06439 32.07062 32.14748 32.2931 32.3981 32.47062 32.46999 32.40123 32.38124 32.39312 32.41063 32.43439 32.47502 32.55877 32.66 32.75437 32.80684 32.7981 32.76875 32.75939 32.78314 32.8625 32.95999 33.02934 33.0606 33.03434 32.9856 32.96 32.97187 33.0169 33.08129 33.14127 33.21812 33.29875 33.35811 33.41625 33.45876 33.49064 33.53625 33.51309 33.52937 33.58372 33.60561 33.67437 33.67937 33.61941 33.58754 33.56755 33.56879 33.59628 33.62376 33.68501 33.76188 33.83001 33.90377 33.9494 33.96941 33.9819 34.01439 34.09313 34.23499 34.36938 34.48561 34.56499 34.59934 34.67995 34.72872 34.75369 34.74121 34.6837 34.64432 34.60874 34.59873 34.62124 34.67998 34.81869 35.11494 35.37806 35.58743 35.71056 35.65496 35.60621 35.57621 35.55621 35.54807 35.54119 35.52121 35.48809 35.45371 35.43124 35.42687 35.425 35.425 35.42436 35.44561 35.48872 35.52873 35.54621 35.55561 35.55061 35.54688 35.57813 35.59935 35.63061 35.67687 35.68687 35.69125 35.67807 35.6462 35.58807 35.51619
30.23686 30.23498 30.24438 30.24438 30.24438 30.25999 30.28875 30.32314 30.34937 30.35062 30.33183 30.31432 30.29621 30.27996 30.28748 30.29936 30.31249 30.32436 30.32624 30.29559 30.28996 30.28495 30.31184 30.35624 30.42624 30.51502 30.56376 30.58561 30.58123 30.55747 30.55119 30.57747 30.56437 30.54875 30.53502 30.55252 30.58249 30.6731 30.71812 30.71436 30.66247 30.55622 30.40625 30.31626 30.2594 30.11942 30.10191 29.96501 29.83811 29.75063 29.59248 29.46938 29.22752 29 28.82688 28.75999 28.88126 29.05629 29.12316 29.00006 28.8188 28.56697 28.30837 28.1615 28.09151 28.17767 28.39688 28.73684 29.02619 29.07996 29.03935 28.70123 28.2781 27.9638 27.75944 27.7563 27.83883 27.92124 27.94186 27.91751 27.90312 27.75564 27.53188 27.33313 27.06251 26.92685 26.84434 26.78809 26.77747 26.72497 26.6962 26.63309 26.61996 26.61874 26.59064 26.50687 26.33126 26.20563 26.05064 25.95876 25.92562 25.88186 25.87373 25.88375 25.89372 25.92809 25.97433 26.03057 26.05997 26.06812 26.08125 26.13311 26.19186 26.23374 26.27312 26.27689 26.31002 26.39876 26.52752 26.62066 26.6869 26.69504 26.69381 26.70688 26.74063 26.81812 26.80622 26.77501 26.74249 26.71249 26.76124 26.86813 26.96126 27.05376 27.14749 27.25057 27.40496 27.63244 27.96559 28.26685 28.49247 28.60436 28.58808 28.57 28.59063 28.64623 28.71378 28.77687 28.81436 28.83001 28.81876 28.77689 28.73316 28.69879 28.7194 28.79065 28.86753 28.94502 29.29879 29.66192 30.0663 30.51441 30.68502 30.78004 30.81628 30.82005 30.77066 30.75189 30.73564 30.70688 30.70314 30.74377 30.83815 30.95001 31.06125 31.11562 31.13312 31.13686 31.15624 31.20748 31.25561 31.28438 31.28752 31.2769 31.25689 31.23061 31.22939 31.22939 31.24435 31.26749 31.28626 31.30501 31.32501 31.35814 31.40811 31.45935 31.52559 31.58683 31.61809 31.63251 31.63253 31.65941 31.69502 31.70874 31.72621 31.72559 31.72061 31.73751 31.74503 31.73939 31.73876 31.73934 31.72498 31.72186 31.73373 31.74627 31.80566 31.86068 31.89696 31.94193 31.97066 32.00065 32.03813 32.0619 32.06814 32.08438 32.15875 32.30811 32.41312 32.48314 32.49126 32.4175 32.39312 32.39811 32.40811 32.43999 32.4875 32.56314 32.65563 32.74187 32.8031 32.82684 32.8306 32.85 32.89251 32.95875 33.04873 33.10867 33.13242 33.12366 33.08806 33.06809 33.07688 33.12003 33.18754 33.25317 33.33814 33.41815 33.46814 33.5144 33.54127 33.56439 33.60249 33.59559 33.61811 33.66372 33.68811 33.74686 33.75061 33.69814 33.65876 33.62565 33.6294 33.66752 33.70501 33.76003 33.82189 33.8744 33.93439 33.97876 33.99191 33.99189 34.01939 34.09439 34.23687 34.38436 34.52373 34.63311 34.68934 34.77061 34.80751 34.80936 34.78313 34.7231 34.68557 34.65435 34.6487 34.66872 34.72121 34.8618 35.12743 35.39367 35.60368 35.71745 35.68373 35.63 35.59499 35.57438 35.56436 35.55559 35.53185 35.49749 35.45747 35.42936 35.42687 35.425 35.42935 35.43871 35.45746 35.48996 35.51933 35.53558 35.54497 35.55622 35.55875 35.57687 35.59499 35.61937 35.66251 35.67562 35.68249 35.66557 35.62244 35.57183 35.50558
30.35375 30.31561 30.27874 30.25499 30.24499 30.27123 30.29062 30.30126 30.32813 30.33438 30.33559 30.35308 30.36808 30.37809 30.39747 30.39999 30.38309 30.37744 30.36872 30.35371 30.36374 30.34749 30.34186 30.35 30.37313 30.41316 30.44066 30.44876 30.45124 30.46873 30.52118 30.60057 30.62496 30.62622 30.59563 30.58439 30.60627 30.68126 30.75378 30.82064 30.84248 30.87748 30.86249 30.86062 30.90814 30.82003 30.80814 30.71626 30.61813 30.54627 30.43313 30.34002 30.13817 29.98252 29.89751 29.86062 29.96809 30.11124 30.15438 30.05753 29.91754 29.73135 29.52401 29.42777 29.44028 29.59019 29.74189 29.94872 30.05369 29.96123 29.87061 29.58499 29.26937 29.01256 28.87821 28.92195 29.01883 29.12747 29.16808 29.15122 29.12873 28.94252 28.66377 28.38438 28.04188 27.85185 27.7231 27.65498 27.62686 27.54809 27.48869 27.3687 27.3787 27.44436 27.49311 27.45436 27.18622 26.95557 26.68749 26.52809 26.52622 26.45186 26.42497 26.41876 26.37313 26.39187 26.45499 26.51748 26.55001 26.57565 26.57626 26.64499 26.75562 26.7956 26.82374 26.80313 26.80249 26.91877 27.08253 27.17567 27.22692 27.20254 27.17381 27.18377 27.2319 27.33002 27.295 27.20564 27.14311 27.07935 27.13123 27.27559 27.38187 27.49188 27.61436 27.74684 27.91495 28.16369 28.49246 28.77061 28.97563 29.04814 28.97812 28.89314 28.83312 28.80248 28.81064 28.82563 28.82813 28.82815 28.80877 28.79253 28.78003 28.77003 28.79378 28.83877 28.88564 28.92316 29.27689 29.64377 30.04002 30.50249 30.66564 30.77003 30.83691 30.85381 30.82067 30.80441 30.77505 30.73817 30.72628 30.76315 30.85127 30.9525 31.05437 31.11687 31.14248 31.16811 31.19686 31.25435 31.31373 31.34062 31.34999 31.33874 31.31436 31.28873 31.28686 31.28125 31.28563 31.3 31.30188 31.31562 31.33499 31.36376 31.40873 31.46873 31.5481 31.61559 31.65372 31.6725 31.67253 31.69502 31.72564 31.74187 31.76059 31.76997 31.77937 31.79064 31.79128 31.77751 31.76626 31.76122 31.75935 31.77624 31.81249 31.86065 31.94003 31.99316 32.01693 32.02316 32.01564 32.02875 32.05499 32.08939 32.10503 32.11815 32.18501 32.31934 32.41872 32.48936 32.50125 32.42751 32.39312 32.39312 32.40683 32.45246 32.50996 32.57498 32.64936 32.72311 32.77935 32.82623 32.85812 32.8944 32.95628 33.01626 33.09122 33.15055 33.1793 33.19118 33.17808 33.16309 33.16624 33.21124 33.28624 33.36876 33.4575 33.52254 33.55066 33.57318 33.58817 33.60814 33.645 33.65684 33.68809 33.73309 33.76748 33.82187 33.82876 33.77941 33.73003 33.68628 33.68814 33.74001 33.79813 33.85751 33.90688 33.94563 33.9775 33.99689 33.99254 33.99189 34.01251 34.09689 34.24624 34.39622 34.55748 34.69124 34.76937 34.85999 34.8819 34.86688 34.8294 34.76939 34.73501 34.71062 34.70997 34.72061 34.78123 34.94246 35.19748 35.4612 35.65933 35.72936 35.69939 35.6494 35.61438 35.60624 35.59559 35.58683 35.55622 35.51373 35.46435 35.43124 35.42999 35.42622 35.44184 35.45558 35.47497 35.49873 35.51685 35.52998 35.53997 35.55621 35.56123 35.56998 35.57936 35.60189 35.63877 35.65312 35.65937 35.6412 35.59682 35.5531 35.49747
30.53689 30.46438 30.3825 30.33375 30.31248 30.32811 30.34127 30.35877 30.3869 30.39376 30.38684 30.36433 30.35308 30.35308 30.37062 30.40624 30.43936 30.47121 30.48497 30.48497 30.48747 30.45622 30.43309 30.42311 30.41187 30.41875 30.42875 30.42937 30.43122 30.44684 30.47868 30.51994 30.5337 30.53935 30.52751 30.53689 30.55501 30.60936 30.63499 30.66123 30.67996 30.70498 30.76812 30.83876 30.94753 30.9744 31.00252 30.965 30.89562 30.85001 30.76876 30.72252 30.63818 30.57004 30.58189 30.61749 30.71122 30.82999 30.86438 30.80252 30.70193 30.57317 30.42335 30.37274 30.41834 30.54583 30.65251 30.70559 30.66246 30.47374 30.3281 30.13624 29.94563 29.86491 29.85618 29.97618 30.13742 30.25499 30.32998 30.33998 30.34561 30.19562 29.88499 29.54123 29.14748 28.91623 28.81373 28.79187 28.79876 28.73812 28.63186 28.50685 28.51434 28.60373 28.75622 28.76685 28.54371 28.28369 27.93435 27.72121 27.65684 27.5331 27.47622 27.40252 27.31127 27.29064 27.34064 27.38998 27.39378 27.40879 27.37254 27.43942 27.59376 27.62624 27.66123 27.65435 27.64809 27.78562 27.92375 27.99191 27.98502 27.93127 27.89877 27.88437 27.93499 28.05122 28.03497 27.95622 27.88684 27.79309 27.81497 27.94245 28.04809 28.16562 28.3031 28.44123 28.58811 28.79873 29.05499 29.25251 29.39816 29.41752 29.30314 29.15688 29.01999 28.91813 28.88 28.86938 28.85937 28.85314 28.82817 28.82194 28.82881 28.83191 28.86253 28.89624 28.92499 28.9525 29.30311 29.66438 30.04439 30.50438 30.65627 30.77004 30.86254 30.88569 30.86005 30.84378 30.80939 30.76439 30.75376 30.78937 30.87249 30.97061 31.05998 31.12435 31.1581 31.19686 31.23809 31.29748 31.35624 31.38812 31.41312 31.41375 31.40873 31.40436 31.41687 31.42438 31.42689 31.43313 31.42376 31.42 31.42686 31.43063 31.45374 31.50747 31.58685 31.6756 31.72185 31.73439 31.72813 31.73313 31.75063 31.77875 31.8125 31.82812 31.85002 31.85126 31.83064 31.80689 31.78375 31.77186 31.78374 31.82876 31.91066 32.00629 32.11192 32.16004 32.14878 32.11878 32.06688 32.04937 32.06249 32.08564 32.09941 32.11628 32.18253 32.29498 32.38686 32.45625 32.47189 32.42063 32.39811 32.40247 32.41808 32.46247 32.52124 32.56749 32.61749 32.67561 32.71434 32.7706 32.82062 32.86688 32.93501 32.99875 33.06746 33.13306 33.19179 33.22929 33.23058 33.23121 33.22811 33.26186 33.35812 33.45939 33.54627 33.59568 33.6063 33.60132 33.60944 33.63876 33.665 33.69183 33.72869 33.77246 33.82873 33.89 33.90751 33.86628 33.81502 33.75627 33.75814 33.82563 33.89501 33.95564 34 34.01812 34.02312 34.02377 33.99879 33.99189 34.01064 34.11126 34.26936 34.43309 34.61686 34.76624 34.86502 34.95628 34.96441 34.93627 34.87876 34.81623 34.78248 34.75309 34.76682 34.77999 34.85998 35.03124 35.26439 35.50812 35.6706 35.71562 35.69063 35.65188 35.62623 35.62809 35.61808 35.60933 35.57498 35.52687 35.46686 35.42937 35.42622 35.42747 35.45311 35.47498 35.49935 35.51874 35.53686 35.54561 35.55562 35.56748 35.56936 35.57061 35.57124 35.58689 35.61816 35.63062 35.63437 35.61622 35.56935 35.53064 35.48688
30.82251 30.70251 30.56124 30.48751 30.44688 30.44939 30.46005 30.49066 30.54816 30.59502 30.63499 30.63499 30.60937 30.58063 30.52624 30.48686 30.46123 30.44996 30.47372 30.4906 30.51248 30.52436 30.52872 30.54184 30.53561 30.52813 30.52752 30.51316 30.50063 30.51687 30.52121 30.52683 30.53121 30.51123 30.49626 30.50752 30.51878 30.55001 30.56751 30.57688 30.58125 30.60439 30.64314 30.71252 30.79501 30.80937 30.82311 30.80434 30.77621 30.7756 30.75873 30.74751 30.75317 30.76878 30.85189 30.94936 31.04996 31.13374 31.16126 31.13562 31.07752 31.02504 30.98377 30.96817 31.01316 31.10501 31.13501 31.08686 30.94872 30.73436 30.60311 30.51751 30.48251 30.55438 30.61375 30.74749 30.88374 30.96934 31.02871 31.05307 31.08871 31.0031 30.79186 30.48001 30.14623 29.93436 29.86248 29.9106 29.9575 29.92813 29.82061 29.71747 29.72123 29.83559 30.0262 30.10872 29.9837 29.77431 29.51248 29.30495 29.2287 29.10184 28.99684 28.87375 28.72938 28.65689 28.65189 28.69624 28.69315 28.68691 28.61877 28.59877 28.71812 28.72123 28.74998 28.78621 28.76683 28.88559 28.95559 28.96691 28.92502 28.85502 28.84001 28.82311 28.86559 28.96119 28.92996 28.84684 28.80809 28.74685 28.77622 28.88245 28.95435 29.03059 29.16872 29.27749 29.36374 29.47064 29.59878 29.70379 29.78319 29.76816 29.58878 29.37624 29.15496 28.98811 28.92872 28.91559 28.91246 28.91873 28.90436 28.90315 28.90816 28.90877 28.93503 28.95564 28.97438 28.99564 29.32812 29.6725 30.03814 30.48314 30.63629 30.77254 30.89317 30.93941 30.92251 30.90251 30.85875 30.80437 30.80062 30.83561 30.90874 30.99811 31.07999 31.14621 31.19311 31.24561 31.28748 31.35188 31.40688 31.43312 31.46876 31.47501 31.48501 31.49313 31.51814 31.53127 31.5444 31.5669 31.55941 31.55626 31.54437 31.52438 31.52186 31.55123 31.63436 31.73874 31.78749 31.79192 31.75816 31.73191 31.73689 31.79125 31.84876 31.86626 31.90004 31.88254 31.84755 31.82129 31.78752 31.77439 31.80064 31.88251 32.0144 32.16502 32.31377 32.36939 32.33376 32.25439 32.14687 32.08189 32.06313 32.06438 32.0594 32.07752 32.13814 32.23376 32.32438 32.39499 32.41875 32.39937 32.39497 32.4031 32.42371 32.47059 32.52187 32.5556 32.59186 32.63498 32.66747 32.72186 32.77499 32.82063 32.88375 32.94562 33.01058 33.07933 33.15369 33.20995 33.23186 33.24747 33.25248 33.28248 33.36936 33.48312 33.56314 33.60505 33.61755 33.60131 33.60818 33.64439 33.66999 33.70745 33.75118 33.79744 33.86872 33.93687 33.96941 33.94755 33.89567 33.83254 33.82439 33.89063 33.97187 34.03624 34.085 34.10126 34.09688 34.09191 34.07567 34.07129 34.11377 34.22065 34.36625 34.50873 34.68313 34.83062 34.93753 35.02505 35.02631 34.98506 34.91816 34.86376 34.82689 34.79684 34.81621 34.82874 34.91374 35.10439 35.31627 35.53875 35.67624 35.68999 35.65936 35.61999 35.59684 35.59557 35.59182 35.59056 35.56557 35.52746 35.47122 35.43624 35.43061 35.43184 35.46811 35.50062 35.53438 35.56252 35.5844 35.58938 35.59001 35.595 35.58435 35.57562 35.57625 35.58377 35.60065 35.61686 35.61874 35.59623 35.55684 35.51438 35.47188
