ncols         256
nrows         41
xllcorner     263976
yllcorner     664444
cellsize      2
NODATA_value  -9999
1.434646 1.434668 1.433715 1.431746 1.429744 1.427694 1.425226 1.421293 1.416616 1.411254 1.40528 1.398374 1.390468 1.381622 1.371806 1.360028 1.346703 1.333106 1.321021 1.310504 1.301508 1.294195 1.288848 1.28693 1.287225 1.287766 1.286813 1.285177 1.283248 1.280985 1.278298 1.274833 1.270989 1.267376 1.264589 1.262416 1.260728 1.259519 1.258809 1.258805 1.259272 1.25987 1.260309 1.260744 1.261222 1.261709 1.262178 1.262673 1.263163 1.263599 1.263935 1.264188 1.264374 1.264503 1.264574 1.264556 1.264485 1.264413 1.264387 1.264375 1.264377 1.264408 1.264474 1.264542 1.264645 1.264833 1.265153 1.265596 1.266135 1.266746 1.26742 1.268234 1.269104 1.26991 1.270548 1.271078 1.271516 1.271847 1.272059 1.272177 1.272183 1.272047 1.27175 1.271348 1.270788 1.269992 1.268921 1.267818 1.266423 1.264337 1.261161 1.256889 1.251671 1.245631 1.238764 1.230182 1.220554 1.211152 1.203349 1.196743 1.191159 1.186721 1.183569 1.182001 1.181738 1.182352 1.183478 1.185408 1.188051 1.191157 1.194602 1.198944 1.203555 1.207577 1.210316 1.21214 1.213273 1.213764 1.213609 1.212533 1.210844 1.208991 1.207384 1.205822 1.204221 1.202605 1.200997 1.199418 1.197827 1.196171 1.194403 1.192559 1.190628 1.188577 1.186388 1.184147 1.18176 1.179085 1.175976 1.172412 1.168483 1.164283 1.159844 1.154754 1.149404 1.144436 1.140478 1.137339 1.134867 1.133025 1.131727 1.130733 1.130411 1.131258 1.133353 1.134553 1.137213 1.144587 1.159079 1.178829 1.201076 1.223862 1.246226 1.269822 1.291846 1.309981 1.323596 1.336146 1.346195 1.351691 1.350675 1.342076 1.327667 1.310048 1.292805 1.273038 1.250324 1.226652 1.205034 1.185749 1.168895 1.154922 1.144417 1.139736 1.139308 1.140327 1.140313 1.140632 1.141635 1.142955 1.144316 1.146024 1.14793 1.149731 1.151168 1.152352 1.153369 1.15425 1.154997 1.155472 1.155834 1.156319 1.15713 1.158185 1.159412 1.160784 1.162292 1.164055 1.165932 1.167727 1.169281 1.170714 1.172021 1.173135 1.174026 1.174878 1.175511 1.175653 1.17504 1.173641 1.171678 1.169386 1.16686 1.163281 1.159462 1.156695 1.155971 1.155621 1.156851 1.161664 1.171182 1.182145 1.196227 1.215628 1.241886 1.275678 1.306861 1.329625 1.342211 1.348737 1.351658 1.352 1.348797 1.330511 1.307114 1.303844 1.343109 1.402539 1.443984 1.466622 1.472927 1.472081 1.471409 1.47072 1.470376 1.470384
1.434805 1.434825 1.433966 1.432194 1.430396 1.428554 1.426536 1.423115 1.419076 1.414451 1.40928 1.403303 1.396485 1.3889 1.380543 1.370571 1.359403 1.348165 1.338354 1.329973 1.322918 1.317255 1.313162 1.311854 1.31225 1.312652 1.311561 1.309652 1.307267 1.30438 1.300905 1.296421 1.291329 1.286287 1.281959 1.278105 1.274606 1.271499 1.268837 1.266781 1.265177 1.263788 1.262399 1.261127 1.260013 1.259039 1.25819 1.257486 1.256921 1.256479 1.256147 1.255939 1.25585 1.255869 1.255988 1.256245 1.256601 1.257001 1.257396 1.257806 1.258245 1.258718 1.259226 1.25974 1.260293 1.260925 1.261678 1.262546 1.2635 1.264512 1.265572 1.266765 1.267997 1.269136 1.270072 1.270872 1.271552 1.27209 1.272473 1.272746 1.27287 1.27279 1.272459 1.271935 1.271183 1.270138 1.268767 1.267252 1.265389 1.262867 1.259367 1.254848 1.249437 1.243254 1.236303 1.227743 1.21821 1.208905 1.201119 1.19448 1.188822 1.18426 1.180928 1.179125 1.178579 1.178866 1.179621 1.181129 1.183321 1.185975 1.188978 1.192829 1.196973 1.200641 1.203207 1.205002 1.206216 1.206878 1.206982 1.206325 1.205144 1.203779 1.202537 1.201257 1.199884 1.198443 1.196957 1.195406 1.193792 1.192126 1.190421 1.188688 1.186901 1.185029 1.183056 1.181084 1.179004 1.176644 1.173839 1.170586 1.166975 1.163086 1.158945 1.154196 1.149173 1.144427 1.140479 1.137125 1.134282 1.132 1.130146 1.127719 1.125991 1.126785 1.131255 1.136363 1.144368 1.158459 1.18085 1.210693 1.240938 1.266803 1.286432 1.302979 1.317161 1.328843 1.338251 1.347107 1.35421 1.358034 1.357091 1.350748 1.340307 1.327476 1.314326 1.298966 1.280873 1.260714 1.239243 1.213964 1.186135 1.15984 1.141205 1.133553 1.133325 1.135463 1.135454 1.135784 1.137088 1.138707 1.140115 1.141714 1.143445 1.145044 1.146286 1.147263 1.148055 1.148697 1.149199 1.149407 1.149493 1.149703 1.150255 1.151065 1.152055 1.153194 1.154473 1.156027 1.157699 1.159268 1.160552 1.161674 1.162644 1.163408 1.16394 1.164377 1.164587 1.164368 1.16352 1.161988 1.159969 1.157686 1.155236 1.151877 1.148344 1.145803 1.14508 1.14431 1.145044 1.149738 1.159769 1.171069 1.18593 1.207267 1.236905 1.274995 1.309472 1.334111 1.347417 1.354002 1.356742 1.356946 1.353987 1.337 1.315376 1.312359 1.348731 1.40479 1.444648 1.466696 1.472877 1.472046 1.471386 1.470709 1.470371 1.470379
1.434964 1.434982 1.434215 1.432637 1.431041 1.429399 1.427867 1.424954 1.421547 1.417643 1.413254 1.408172 1.402393 1.395999 1.389004 1.3807 1.371489 1.362356 1.354542 1.348007 1.342613 1.338354 1.335331 1.334557 1.335074 1.335413 1.334278 1.33223 1.329569 1.326277 1.322265 1.317058 1.311043 1.304898 1.299339 1.294097 1.289056 1.284282 1.279851 1.275885 1.272296 1.268936 1.265664 1.262566 1.259691 1.257046 1.254637 1.252453 1.250535 1.248934 1.2477 1.246844 1.246336 1.246143 1.246253 1.246785 1.247609 1.248532 1.249391 1.250264 1.251188 1.252154 1.253153 1.254167 1.255223 1.256352 1.257586 1.258926 1.26034 1.261798 1.263285 1.264896 1.266528 1.268036 1.2693 1.270401 1.271351 1.272122 1.272702 1.273152 1.273418 1.273412 1.273059 1.272417 1.271471 1.270172 1.268491 1.26654 1.264181 1.2612 1.257367 1.252608 1.247023 1.24073 1.233737 1.225273 1.215924 1.2068 1.199088 1.192447 1.186726 1.182029 1.178478 1.176371 1.175447 1.175299 1.175572 1.176537 1.178147 1.180217 1.18265 1.185867 1.189404 1.192611 1.194949 1.196703 1.19802 1.198906 1.199346 1.199231 1.198705 1.197967 1.197193 1.196279 1.195203 1.193996 1.192676 1.191176 1.189551 1.187888 1.186271 1.184681 1.183075 1.181421 1.179707 1.178056 1.176335 1.17434 1.171878 1.16897 1.165703 1.162145 1.158314 1.153913 1.149216 1.144677 1.140711 1.137058 1.133753 1.130993 1.128635 1.124747 1.121662 1.122818 1.130672 1.141212 1.15598 1.177338 1.206715 1.244086 1.279004 1.30551 1.32189 1.332122 1.339177 1.344625 1.349693 1.354551 1.358328 1.360201 1.359361 1.355676 1.349699 1.341997 1.333131 1.322354 1.309095 1.29291 1.272623 1.243099 1.20544 1.166227 1.138254 1.127104 1.127217 1.130797 1.130861 1.131261 1.132973 1.134979 1.136455 1.137908 1.1394 1.140729 1.141726 1.14245 1.142975 1.14334 1.143557 1.143469 1.143248 1.143145 1.143386 1.143885 1.144564 1.145389 1.146352 1.147598 1.14896 1.150206 1.151139 1.151877 1.152445 1.152804 1.152934 1.152916 1.152674 1.152089 1.151031 1.149428 1.147444 1.145282 1.143032 1.14005 1.136978 1.134832 1.134242 1.133136 1.13344 1.138102 1.148799 1.160695 1.176575 1.199919 1.232701 1.274518 1.311708 1.337842 1.351753 1.358481 1.361201 1.36141 1.358727 1.342893 1.322798 1.319974 1.353823 1.406874 1.445273 1.466766 1.472827 1.472011 1.471363 1.470698 1.470367 1.470375
1.435123 1.435141 1.434468 1.433085 1.43169 1.430262 1.428878 1.426361 1.423429 1.42007 1.416281 1.411889 1.406912 1.401437 1.395491 1.388468 1.380752 1.373214 1.366901 1.361757 1.357621 1.354444 1.352275 1.351993 1.352722 1.353156 1.352149 1.350187 1.347536 1.344185 1.340045 1.334615 1.328258 1.321645 1.315501 1.309537 1.303638 1.297876 1.292338 1.287112 1.282148 1.277356 1.272647 1.268085 1.263726 1.259605 1.255745 1.252104 1.248776 1.245895 1.243591 1.241874 1.240696 1.240016 1.23982 1.240299 1.241247 1.242363 1.243385 1.244445 1.245592 1.246808 1.248074 1.249383 1.250753 1.252207 1.253766 1.255437 1.257187 1.258978 1.260796 1.262745 1.26471 1.26653 1.268072 1.26943 1.270616 1.271595 1.272353 1.272972 1.273378 1.273453 1.273093 1.27236 1.271255 1.269744 1.2678 1.265474 1.262683 1.259305 1.2552 1.250262 1.244568 1.238232 1.231268 1.222977 1.213896 1.205034 1.197463 1.190877 1.185137 1.180336 1.176588 1.174175 1.172857 1.172252 1.172023 1.172418 1.173416 1.174866 1.176686 1.179221 1.1821 1.184789 1.186848 1.188515 1.189892 1.190959 1.191698 1.192086 1.192174 1.192022 1.191678 1.191095 1.190287 1.189288 1.188111 1.186648 1.185002 1.183334 1.181792 1.180331 1.178892 1.177442 1.175971 1.174622 1.17324 1.171592 1.169456 1.16688 1.163948 1.160712 1.157185 1.153115 1.148732 1.144415 1.140473 1.136486 1.132727 1.129722 1.127501 1.123211 1.120119 1.123103 1.13572 1.153467 1.175859 1.203196 1.235646 1.274376 1.308789 1.333384 1.346822 1.35288 1.355253 1.356352 1.358136 1.359797 1.360785 1.360969 1.360253 1.358923 1.356682 1.353023 1.34744 1.340167 1.330579 1.317485 1.298473 1.266569 1.2219 1.171864 1.135191 1.120622 1.121083 1.126094 1.126238 1.126713 1.128827 1.131212 1.132749 1.134051 1.135294 1.136346 1.137091 1.13756 1.137813 1.137897 1.137827 1.13744 1.13691 1.13649 1.13641 1.136583 1.136932 1.137423 1.138048 1.138957 1.139979 1.140875 1.141436 1.141776 1.14193 1.141875 1.141597 1.141124 1.140432 1.139485 1.13823 1.136577 1.134654 1.13264 1.130604 1.127943 1.125279 1.123578 1.12336 1.12222 1.122539 1.127876 1.140329 1.15464 1.173224 1.199141 1.233949 1.277235 1.315199 1.341654 1.355687 1.362416 1.365107 1.365336 1.362869 1.347984 1.329145 1.326472 1.358213 1.408705 1.445829 1.46683 1.472777 1.471976 1.47134 1.470688 1.470362 1.47037
1.435168 1.435186 1.434541 1.433218 1.431885 1.430516 1.429314 1.426963 1.42424 1.421136 1.417658 1.413649 1.409134 1.404209 1.398909 1.392697 1.385946 1.37945 1.374141 1.369956 1.366725 1.364368 1.362904 1.363132 1.36422 1.364952 1.364276 1.362644 1.360308 1.35726 1.353418 1.348294 1.342229 1.335863 1.329886 1.32401 1.318117 1.312274 1.306561 1.301043 1.29568 1.290398 1.285123 1.279899 1.274784 1.269823 1.265046 1.260374 1.255941 1.251947 1.248594 1.245878 1.243754 1.242192 1.241193 1.240967 1.2413 1.241872 1.242403 1.243035 1.243818 1.24473 1.245751 1.246878 1.248124 1.249498 1.251014 1.252684 1.254473 1.256336 1.258253 1.260344 1.262477 1.264467 1.266162 1.267672 1.269007 1.270126 1.27101 1.271765 1.272294 1.272452 1.272111 1.271335 1.27014 1.268503 1.266401 1.263831 1.26076 1.257135 1.252885 1.247883 1.24219 1.235914 1.229076 1.221044 1.212309 1.203784 1.196435 1.189983 1.184302 1.179475 1.175603 1.172952 1.171301 1.1703 1.169637 1.169538 1.169998 1.170892 1.172156 1.174071 1.176338 1.178523 1.180263 1.18176 1.183081 1.18419 1.185061 1.185738 1.186198 1.1864 1.186303 1.1859 1.185229 1.184327 1.183208 1.18173 1.180031 1.178327 1.176814 1.175426 1.174092 1.172779 1.171481 1.170351 1.169222 1.167839 1.165967 1.163672 1.161032 1.158089 1.154847 1.151082 1.147002 1.142944 1.139118 1.134763 1.13059 1.127778 1.126851 1.124153 1.123539 1.130688 1.149621 1.176274 1.206321 1.236971 1.267249 1.300245 1.328961 1.349331 1.360111 1.363978 1.36427 1.363448 1.363617 1.363648 1.363202 1.362528 1.361943 1.361946 1.361722 1.360189 1.356404 1.351216 1.343874 1.332708 1.314575 1.281464 1.23251 1.174956 1.131654 1.114332 1.115023 1.121128 1.121298 1.121801 1.124211 1.126874 1.128442 1.129611 1.130649 1.13147 1.131998 1.132243 1.132257 1.132089 1.131759 1.1311 1.130284 1.129573 1.129203 1.129086 1.129142 1.129338 1.129667 1.130284 1.131014 1.131606 1.131842 1.13183 1.131618 1.131195 1.130551 1.129666 1.128565 1.12728 1.125824 1.124095 1.122189 1.120257 1.118323 1.115683 1.113112 1.111786 1.112318 1.111714 1.112945 1.12037 1.136684 1.156773 1.180957 1.210192 1.244909 1.285808 1.321374 1.346254 1.359595 1.365997 1.368519 1.368687 1.366306 1.352126 1.334262 1.331709 1.36178 1.410213 1.446293 1.466883 1.472739 1.471949 1.471322 1.47068 1.470359 1.470366
1.4351 1.435116 1.434436 1.433038 1.431629 1.430164 1.429296 1.426926 1.424209 1.421148 1.417778 1.413944 1.409673 1.405069 1.40018 1.39452 1.388452 1.382722 1.378177 1.374761 1.372292 1.370666 1.369878 1.370679 1.372249 1.373427 1.373224 1.372085 1.370253 1.367728 1.364439 1.359934 1.354539 1.348845 1.343487 1.338191 1.332841 1.327489 1.322199 1.31703 1.311931 1.306817 1.301601 1.296312 1.291001 1.28571 1.280465 1.275145 1.269905 1.264994 1.260667 1.256897 1.253651 1.250925 1.248739 1.247282 1.246388 1.245796 1.245273 1.244941 1.244845 1.244967 1.245287 1.245812 1.246545 1.247485 1.248634 1.250015 1.251586 1.253296 1.25512 1.257194 1.259365 1.261419 1.26318 1.264775 1.266211 1.267441 1.268439 1.269334 1.270009 1.270286 1.27001 1.269254 1.268047 1.266374 1.264211 1.261523 1.258308 1.254572 1.250297 1.245347 1.239768 1.233663 1.227057 1.219385 1.211091 1.202995 1.195954 1.189718 1.184171 1.179386 1.175452 1.172608 1.17066 1.169296 1.168239 1.167686 1.167645 1.168016 1.168744 1.170062 1.171732 1.1734 1.174771 1.176017 1.177178 1.178205 1.179069 1.17986 1.180502 1.180879 1.180884 1.180542 1.179906 1.179019 1.177889 1.176354 1.174579 1.172814 1.171295 1.169937 1.168663 1.167441 1.166265 1.165299 1.164362 1.163192 1.161544 1.159497 1.157125 1.15446 1.151499 1.148056 1.144307 1.140532 1.13679 1.131754 1.12686 1.12436 1.125616 1.125836 1.129481 1.142903 1.170302 1.20841 1.246613 1.278795 1.303493 1.325921 1.344757 1.358356 1.365882 1.368258 1.367764 1.366407 1.365938 1.365329 1.364394 1.363495 1.363075 1.363699 1.364381 1.36387 1.361167 1.357565 1.352055 1.342513 1.325188 1.291426 1.239535 1.176306 1.127719 1.108131 1.108985 1.115962 1.116134 1.116647 1.119285 1.122164 1.12374 1.124782 1.125632 1.126241 1.126568 1.126601 1.126387 1.125982 1.125404 1.124482 1.123391 1.122399 1.121749 1.121352 1.121127 1.12104 1.121085 1.121421 1.12187 1.122173 1.122103 1.121764 1.121213 1.120449 1.119465 1.118205 1.11673 1.115131 1.113481 1.111671 1.109764 1.107877 1.10596 1.10303 1.100236 1.09928 1.101108 1.101809 1.105104 1.116332 1.138849 1.168035 1.200084 1.232684 1.265071 1.299988 1.330132 1.351562 1.363407 1.369196 1.371466 1.371549 1.369161 1.355491 1.338382 1.335923 1.364667 1.411448 1.446677 1.466927 1.472713 1.47193 1.47131 1.470674 1.470357 1.470364
1.435032 1.435049 1.434334 1.432865 1.431382 1.429841 1.428899 1.426392 1.423522 1.420338 1.416921 1.413106 1.408918 1.404472 1.39983 1.394546 1.38898 1.38384 1.379915 1.377156 1.37537 1.37443 1.374309 1.375726 1.377858 1.379569 1.379919 1.379354 1.37812 1.376225 1.373608 1.369867 1.365312 1.360485 1.355956 1.351472 1.346921 1.34234 1.337777 1.333292 1.328815 1.32424 1.319455 1.314477 1.309351 1.304108 1.29876 1.293149 1.287434 1.281891 1.276805 1.272121 1.267812 1.263904 1.260436 1.257543 1.255136 1.253059 1.251171 1.249561 1.248265 1.247274 1.246582 1.246203 1.246136 1.246372 1.246904 1.247766 1.248916 1.250292 1.251864 1.25379 1.255891 1.257918 1.259668 1.261282 1.262769 1.26407 1.265156 1.266176 1.266993 1.267396 1.267204 1.266498 1.265321 1.263662 1.261502 1.258774 1.255508 1.251755 1.247543 1.24273 1.237351 1.231503 1.225212 1.217981 1.210208 1.202615 1.195952 1.189992 1.184632 1.179934 1.175977 1.172968 1.170741 1.169031 1.167599 1.166619 1.1661 1.165966 1.166173 1.166911 1.167991 1.169131 1.170093 1.171023 1.171941 1.172789 1.173538 1.174308 1.174987 1.175403 1.175402 1.17503 1.174354 1.173416 1.172225 1.170601 1.168728 1.166885 1.165331 1.163972 1.162725 1.161559 1.16047 1.159624 1.158839 1.157843 1.156392 1.154573 1.152458 1.150063 1.147381 1.144246 1.140822 1.137362 1.13378 1.12805 1.122478 1.120644 1.124945 1.129415 1.138697 1.15908 1.194161 1.241122 1.284066 1.315671 1.334967 1.347965 1.35731 1.363832 1.36794 1.369095 1.368352 1.367057 1.366386 1.365593 1.364619 1.363799 1.363561 1.364466 1.365539 1.365551 1.363607 1.36134 1.357422 1.349293 1.332692 1.298524 1.244411 1.176581 1.123543 1.102001 1.102975 1.110682 1.11084 1.111349 1.114172 1.117223 1.118791 1.119708 1.120378 1.120786 1.120918 1.120748 1.120317 1.119681 1.118865 1.117689 1.116333 1.115068 1.114146 1.113473 1.11297 1.112602 1.112365 1.11242 1.112587 1.112604 1.112239 1.111591 1.110722 1.109643 1.108347 1.106747 1.104936 1.103056 1.101228 1.099346 1.097437 1.095583 1.093631 1.090203 1.086969 1.086387 1.0899 1.092427 1.098526 1.114552 1.144339 1.183496 1.223167 1.25824 1.287521 1.315707 1.339629 1.356944 1.366951 1.372002 1.37399 1.373979 1.371529 1.358222 1.341692 1.339301 1.366986 1.412448 1.446989 1.466964 1.472686 1.471912 1.471297 1.470668 1.470354 1.470362
1.434964 1.434983 1.434236 1.432698 1.431144 1.429542 1.428166 1.425411 1.422242 1.418779 1.415165 1.411219 1.40696 1.402516 1.397965 1.392893 1.387659 1.382951 1.379518 1.37732 1.376152 1.375861 1.376398 1.378469 1.381225 1.383535 1.384488 1.384547 1.383963 1.38275 1.380861 1.377946 1.3743 1.370418 1.366802 1.363226 1.359582 1.355892 1.352191 1.348545 1.344868 1.341025 1.33688 1.332445 1.327757 1.322837 1.317683 1.312105 1.306257 1.30042 1.294885 1.289564 1.284433 1.279537 1.274928 1.270665 1.266739 1.263123 1.25979 1.256791 1.254152 1.251884 1.249998 1.24852 1.24745 1.246779 1.246501 1.246661 1.247216 1.248099 1.249277 1.250931 1.252855 1.254758 1.256402 1.257949 1.259406 1.260707 1.261817 1.262902 1.263807 1.264296 1.264161 1.263497 1.262351 1.260721 1.258587 1.255863 1.252602 1.24889 1.244797 1.240177 1.235055 1.22952 1.223602 1.216869 1.209671 1.20263 1.196387 1.190739 1.185599 1.181018 1.177065 1.173908 1.171415 1.169374 1.167593 1.166215 1.165252 1.164644 1.164358 1.16455 1.165071 1.165693 1.166225 1.166792 1.167399 1.167986 1.168522 1.169147 1.169725 1.170052 1.169944 1.169459 1.168671 1.167623 1.166323 1.164581 1.162592 1.160652 1.159036 1.157645 1.156392 1.155248 1.154209 1.153443 1.152766 1.15191 1.15063 1.149024 1.147155 1.145028 1.142616 1.139719 1.136558 1.133465 1.130305 1.124317 1.118675 1.118276 1.126537 1.136774 1.152726 1.179252 1.218587 1.268698 1.31197 1.341525 1.356914 1.363779 1.366457 1.367464 1.368719 1.368921 1.368133 1.367078 1.366376 1.365576 1.364714 1.364065 1.36399 1.365036 1.366288 1.366591 1.365174 1.363912 1.361187 1.354101 1.338015 1.303519 1.247651 1.176056 1.119239 1.095988 1.097031 1.105336 1.105456 1.105937 1.108899 1.11208 1.113627 1.114422 1.114926 1.115149 1.115101 1.114741 1.114107 1.113259 1.11222 1.110807 1.109203 1.107683 1.106503 1.105569 1.1048 1.104164 1.103658 1.103441 1.103336 1.103081 1.102441 1.101512 1.10036 1.099002 1.097435 1.095545 1.093452 1.091336 1.089355 1.087414 1.085503 1.08367 1.081649 1.077617 1.073826 1.073587 1.078902 1.083407 1.092497 1.113454 1.150315 1.198409 1.244098 1.280656 1.307184 1.329781 1.348315 1.361865 1.370113 1.374437 1.376133 1.376008 1.373461 1.360402 1.344296 1.341941 1.3688 1.413234 1.447237 1.466993 1.472659 1.471893 1.471285 1.470662 1.470352 1.470359
1.434804 1.434825 1.433991 1.43227 1.430527 1.428728 1.427125 1.42398 1.420356 1.416442 1.41247 1.408227 1.403727 1.399113 1.394486 1.389456 1.384387 1.379959 1.376905 1.375194 1.374605 1.374956 1.376174 1.378962 1.38243 1.385423 1.387045 1.387789 1.387913 1.387438 1.386328 1.38429 1.381603 1.378714 1.376059 1.37344 1.370755 1.368013 1.365236 1.362502 1.359707 1.356692 1.353296 1.349534 1.34544 1.341024 1.336272 1.330976 1.325277 1.319442 1.313751 1.308084 1.302415 1.296799 1.291288 1.285851 1.280553 1.275493 1.270772 1.266398 1.262391 1.258785 1.255613 1.252915 1.250701 1.248969 1.247724 1.247027 1.246836 1.24708 1.247725 1.248983 1.250619 1.252295 1.25373 1.255108 1.256441 1.257651 1.2587 1.259767 1.260683 1.261192 1.261071 1.260418 1.25929 1.257687 1.255592 1.252903 1.24969 1.24607 1.24214 1.237759 1.232941 1.227766 1.222265 1.216076 1.209493 1.203042 1.19725 1.191943 1.187046 1.182605 1.178678 1.17539 1.172647 1.170294 1.168193 1.166455 1.165089 1.16405 1.163313 1.16301 1.163019 1.16315 1.163242 1.163406 1.163639 1.163883 1.164108 1.164458 1.164791 1.164893 1.16457 1.163882 1.162907 1.161685 1.160225 1.158334 1.156209 1.154153 1.152448 1.15099 1.149694 1.148533 1.147506 1.146774 1.146159 1.1454 1.144264 1.142857 1.141227 1.139364 1.137204 1.134412 1.131392 1.128743 1.12647 1.121143 1.116639 1.118867 1.131998 1.14953 1.172642 1.2033 1.242138 1.288965 1.328622 1.355195 1.368183 1.372287 1.372003 1.370403 1.370154 1.369777 1.368892 1.367898 1.367124 1.366265 1.365417 1.364838 1.364876 1.366084 1.367544 1.368099 1.367008 1.366285 1.364165 1.357579 1.341693 1.306835 1.249533 1.174882 1.114864 1.090099 1.091155 1.099935 1.099983 1.100405 1.103455 1.106724 1.108233 1.108914 1.10927 1.10933 1.10912 1.10859 1.107775 1.106734 1.105494 1.103868 1.102039 1.100287 1.098872 1.097699 1.096686 1.095804 1.095049 1.09458 1.094222 1.093718 1.092836 1.091667 1.090279 1.088692 1.086907 1.084792 1.082485 1.080188 1.078089 1.076099 1.074183 1.072355 1.070244 1.065606 1.06124 1.061266 1.068203 1.074454 1.086189 1.11149 1.154387 1.209538 1.259516 1.296975 1.321628 1.340459 1.355197 1.365945 1.372815 1.37652 1.377926 1.377655 1.374988 1.362079 1.346256 1.3439 1.370136 1.413813 1.447419 1.467014 1.472643 1.471882 1.471277 1.470659 1.47035 1.470358
1.434551 1.434573 1.433597 1.431577 1.429522 1.427389 1.425547 1.421782 1.417426 1.412767 1.408162 1.40336 1.398361 1.393336 1.388419 1.383244 1.37819 1.373948 1.371248 1.370074 1.370178 1.371335 1.373439 1.3772 1.381649 1.385582 1.388102 1.389749 1.390796 1.391269 1.391147 1.390202 1.388696 1.38701 1.385506 1.384021 1.382461 1.380823 1.379114 1.377431 1.37565 1.373588 1.37106 1.368092 1.364714 1.360931 1.356714 1.351848 1.346454 1.340776 1.335071 1.329183 1.323076 1.31681 1.310424 1.303776 1.296995 1.290322 1.284015 1.278032 1.272382 1.267132 1.262347 1.258089 1.254385 1.251245 1.248689 1.246803 1.245556 1.244879 1.244742 1.245397 1.246578 1.247895 1.24902 1.25016 1.251332 1.252446 1.253455 1.254558 1.255565 1.256192 1.256188 1.255666 1.25469 1.253262 1.251364 1.248893 1.245931 1.242603 1.239018 1.235047 1.230696 1.226037 1.221097 1.21558 1.20973 1.203974 1.198735 1.193863 1.189297 1.185077 1.18125 1.177895 1.174957 1.172347 1.169984 1.167948 1.16624 1.164824 1.163683 1.162937 1.162475 1.162123 1.161729 1.161395 1.161121 1.160859 1.160581 1.16041 1.160226 1.159847 1.159103 1.158043 1.156733 1.155214 1.153497 1.151394 1.149094 1.146887 1.145039 1.143454 1.142053 1.140811 1.139728 1.138955 1.138326 1.137599 1.136561 1.13532 1.133911 1.132305 1.130377 1.127526 1.124506 1.122417 1.121629 1.118038 1.116079 1.122357 1.141469 1.1678 1.198307 1.231298 1.266123 1.305149 1.338285 1.360853 1.371957 1.374999 1.373947 1.371759 1.371094 1.370564 1.369705 1.368795 1.368054 1.367239 1.36646 1.365957 1.366061 1.36734 1.368868 1.369477 1.368423 1.367737 1.365638 1.35903 1.343012 1.307704 1.249261 1.17241 1.110049 1.084128 1.085146 1.09423 1.094179 1.09451 1.097583 1.100877 1.102326 1.102896 1.103119 1.103034 1.102675 1.101986 1.101 1.099779 1.098349 1.096519 1.094475 1.092501 1.090863 1.089461 1.088216 1.0871 1.086113 1.085406 1.084811 1.08408 1.082988 1.08162 1.080043 1.07828 1.07633 1.074061 1.071611 1.069189 1.066988 1.064938 1.062978 1.061096 1.058818 1.053459 1.048378 1.048542 1.057013 1.064919 1.079197 1.108672 1.15722 1.21857 1.272007 1.310101 1.33332 1.349302 1.361065 1.369511 1.375185 1.378299 1.379379 1.378904 1.376065 1.363174 1.347458 1.345052 1.370897 1.414138 1.447521 1.467025 1.472638 1.471878 1.471275 1.470658 1.47035 1.470357
1.434297 1.434323 1.433204 1.430883 1.428512 1.426052 1.423614 1.419085 1.41379 1.408147 1.402675 1.397071 1.391324 1.385644 1.380211 1.374682 1.369462 1.365272 1.362862 1.362231 1.363091 1.365163 1.368295 1.373211 1.378831 1.38387 1.387421 1.390085 1.392151 1.39365 1.394574 1.394762 1.394451 1.393963 1.393584 1.393192 1.392703 1.3921 1.391385 1.390672 1.389824 1.388636 1.386914 1.384692 1.382008 1.37886 1.375214 1.370855 1.365887 1.360529 1.355005 1.349134 1.342869 1.336263 1.329337 1.321842 1.313943 1.305994 1.298384 1.291025 1.283918 1.277156 1.270841 1.265053 1.259839 1.255237 1.251288 1.24811 1.24569 1.243966 1.242918 1.242846 1.243455 1.2443 1.244999 1.245789 1.24669 1.247604 1.248476 1.24952 1.250531 1.251202 1.251264 1.250842 1.250002 1.248746 1.247058 1.24484 1.242175 1.239191 1.235998 1.232481 1.228643 1.224543 1.220205 1.215397 1.21031 1.205274 1.200607 1.196185 1.191963 1.187976 1.184264 1.180854 1.177735 1.174885 1.172289 1.169994 1.167989 1.166243 1.164744 1.163616 1.162742 1.161945 1.16107 1.160212 1.159382 1.158542 1.157669 1.15685 1.156003 1.155 1.153722 1.152192 1.150465 1.148579 1.146545 1.144195 1.141698 1.139317 1.137295 1.135544 1.133995 1.132628 1.131444 1.130576 1.12988 1.129141 1.128172 1.127085 1.125891 1.124547 1.122843 1.119831 1.116721 1.115278 1.11636 1.115134 1.116495 1.127497 1.152869 1.187892 1.224744 1.258739 1.28865 1.318932 1.344647 1.36268 1.371996 1.374643 1.373778 1.37194 1.371399 1.370966 1.370248 1.369489 1.368879 1.368206 1.367566 1.367168 1.367313 1.36858 1.370053 1.370567 1.36937 1.368446 1.36606 1.359153 1.342827 1.307028 1.247654 1.169212 1.105151 1.078338 1.079255 1.088488 1.088305 1.088514 1.091554 1.094826 1.096196 1.096661 1.09677 1.096562 1.096073 1.095245 1.094111 1.092733 1.091137 1.08913 1.086897 1.08473 1.082893 1.081288 1.079835 1.07851 1.077314 1.076391 1.075582 1.074651 1.073388 1.071871 1.070165 1.068289 1.066243 1.063903 1.061398 1.058925 1.056668 1.054575 1.052572 1.050619 1.048136 1.041985 1.036097 1.036322 1.046299 1.05585 1.072646 1.106172 1.160004 1.226817 1.283017 1.321461 1.343425 1.357029 1.366246 1.372646 1.377218 1.379762 1.380509 1.379812 1.376773 1.363807 1.348078 1.345595 1.371226 1.41427 1.447561 1.46703 1.472633 1.471874 1.471273 1.470657 1.470349 1.470357
1.434042 1.43407 1.432808 1.43018 1.427484 1.424682 1.421667 1.416342 1.410051 1.40333 1.396865 1.390301 1.383618 1.377069 1.37089 1.364756 1.359112 1.354735 1.352426 1.352201 1.353729 1.356665 1.360808 1.366903 1.373732 1.379905 1.384484 1.388138 1.39118 1.393641 1.395525 1.396726 1.397459 1.397998 1.398575 1.3991 1.3995 1.39975 1.39985 1.399931 1.399845 1.399377 1.398324 1.396741 1.394669 1.392105 1.389017 1.3852 1.380748 1.375853 1.370712 1.36513 1.359056 1.352532 1.345564 1.337831 1.329511 1.32101 1.312794 1.304739 1.296832 1.289186 1.281918 1.275109 1.26883 1.263154 1.258159 1.253983 1.250623 1.248028 1.246188 1.245457 1.245511 1.245846 1.246027 1.246315 1.246746 1.247222 1.247686 1.24834 1.248995 1.249361 1.249185 1.248579 1.247607 1.246271 1.244557 1.242369 1.239792 1.236955 1.233976 1.230754 1.227285 1.223611 1.219752 1.215549 1.211133 1.206725 1.202535 1.19847 1.194504 1.190674 1.187007 1.183484 1.180135 1.177012 1.174164 1.171609 1.169322 1.167274 1.16546 1.164009 1.162797 1.161633 1.160347 1.159034 1.157714 1.15636 1.154952 1.153542 1.152083 1.1505 1.148723 1.146753 1.144632 1.142398 1.140064 1.137477 1.13479 1.132239 1.130043 1.128124 1.126423 1.124925 1.123632 1.122658 1.121883 1.121122 1.120223 1.119298 1.118336 1.117266 1.115793 1.112596 1.109375 1.108594 1.11162 1.112844 1.117552 1.133117 1.164196 1.206597 1.248158 1.282394 1.308081 1.330918 1.349873 1.36349 1.371059 1.373477 1.373042 1.371788 1.371505 1.371227 1.370673 1.370074 1.369611 1.369094 1.368602 1.368309 1.368487 1.369723 1.371115 1.371509 1.370144 1.368946 1.366231 1.358995 1.342352 1.306106 1.245951 1.166221 1.10075 1.07313 1.073865 1.083136 1.082776 1.08283 1.0858 1.089023 1.090309 1.090682 1.0907 1.0904 1.089812 1.088881 1.087639 1.086149 1.084435 1.082304 1.079942 1.077637 1.075655 1.073893 1.072277 1.070786 1.069424 1.068321 1.067332 1.066243 1.064862 1.063261 1.061498 1.059589 1.057533 1.055223 1.052773 1.050351 1.048122 1.046058 1.044073 1.042099 1.03946 1.032575 1.025926 1.026216 1.03764 1.048789 1.067968 1.105172 1.163567 1.234816 1.292984 1.331446 1.352237 1.36378 1.370758 1.375305 1.378856 1.380881 1.381335 1.380444 1.377216 1.364141 1.348349 1.345791 1.371315 1.414297 1.447568 1.467031 1.472627 1.471871 1.47127 1.470655 1.470349 1.470356
1.433819 1.43385 1.432464 1.429573 1.426594 1.423493 1.420027 1.414012 1.406843 1.399134 1.391701 1.384145 1.376432 1.368861 1.361717 1.354674 1.348234 1.343269 1.34068 1.340509 1.342387 1.345916 1.350844 1.357956 1.365874 1.373075 1.37856 1.383075 1.386955 1.39023 1.392913 1.394933 1.396498 1.397848 1.399184 1.40044 1.40155 1.402485 1.403243 1.403972 1.404516 1.40465 1.404172 1.403151 1.401638 1.399633 1.397107 1.393878 1.390032 1.385742 1.381175 1.376143 1.370598 1.364577 1.358077 1.350759 1.342797 1.3346 1.32664 1.31877 1.310968 1.303345 1.296017 1.289029 1.282472 1.276463 1.271127 1.266593 1.262856 1.259864 1.257615 1.256501 1.25617 1.256068 1.255709 1.255367 1.255104 1.254838 1.254515 1.254282 1.254012 1.253502 1.252569 1.251281 1.249686 1.247791 1.245588 1.242969 1.240027 1.236909 1.233752 1.230469 1.227038 1.223488 1.219833 1.215999 1.212043 1.208063 1.20415 1.200251 1.196368 1.192534 1.188771 1.185011 1.18133 1.17785 1.174691 1.171838 1.169255 1.166917 1.164823 1.163113 1.161652 1.160231 1.158662 1.157047 1.155412 1.153732 1.151988 1.150217 1.148389 1.146454 1.144364 1.142112 1.139733 1.137265 1.134722 1.131959 1.129122 1.126434 1.124104 1.122055 1.120237 1.118641 1.117271 1.116222 1.115394 1.114639 1.113836 1.113104 1.112402 1.111628 1.110399 1.10707 1.103777 1.103606 1.108342 1.111592 1.119048 1.138406 1.174189 1.222243 1.26702 1.301235 1.324005 1.341679 1.355593 1.365605 1.371546 1.373494 1.373095 1.372032 1.371782 1.37155 1.371102 1.370623 1.370256 1.369841 1.369451 1.36924 1.369459 1.370699 1.37207 1.372425 1.371004 1.369716 1.366889 1.359526 1.342727 1.306177 1.245353 1.164354 1.097419 1.068893 1.06935 1.078584 1.07799 1.07785 1.080735 1.083907 1.085116 1.085416 1.085376 1.085022 1.084381 1.0834 1.082111 1.080575 1.078815 1.076644 1.074242 1.071888 1.06984 1.067995 1.066283 1.064692 1.063224 1.061993 1.060874 1.059682 1.05825 1.056644 1.054912 1.053066 1.051106 1.048944 1.046674 1.044431 1.042352 1.040439 1.038591 1.036717 1.034049 1.02662 1.019397 1.019833 1.032611 1.045269 1.066578 1.106828 1.168723 1.24313 1.302387 1.340492 1.360105 1.369763 1.374676 1.377475 1.380062 1.381634 1.381872 1.38086 1.377487 1.36432 1.348475 1.34587 1.371339 1.414299 1.447567 1.467031 1.472627 1.47187 1.47127 1.470655 1.470349 1.470356
1.433629 1.433663 1.432175 1.429064 1.42585 1.422499 1.418541 1.411897 1.403906 1.395235 1.386797 1.378145 1.369231 1.36039 1.351956 1.343576 1.335829 1.329738 1.32638 1.32584 1.327725 1.331591 1.337143 1.345222 1.354254 1.362523 1.368937 1.37433 1.379061 1.383163 1.386647 1.389476 1.39185 1.393988 1.396074 1.398058 1.399878 1.401502 1.402928 1.404322 1.405517 1.406279 1.406404 1.405983 1.405076 1.403686 1.401792 1.399243 1.396119 1.39257 1.388734 1.384444 1.37966 1.374416 1.368707 1.362207 1.355083 1.347719 1.340551 1.333422 1.326301 1.319288 1.312482 1.305878 1.299583 1.293758 1.288576 1.284143 1.280434 1.277393 1.275018 1.273727 1.273143 1.272669 1.271779 1.270746 1.269659 1.268459 1.267101 1.265636 1.264032 1.262221 1.26014 1.257787 1.255187 1.252359 1.249302 1.245895 1.242239 1.238501 1.234842 1.231187 1.227504 1.223802 1.220092 1.21639 1.212675 1.208916 1.205083 1.201165 1.197194 1.193205 1.189218 1.185116 1.18102 1.177122 1.173611 1.170445 1.167575 1.164982 1.162667 1.160791 1.159199 1.157653 1.155942 1.154177 1.152392 1.15056 1.148662 1.146729 1.144737 1.142643 1.140403 1.138007 1.135491 1.132892 1.130224 1.127345 1.124397 1.121605 1.119174 1.117026 1.115115 1.11344 1.11201 1.110896 1.110022 1.10928 1.108587 1.108066 1.107644 1.107181 1.106207 1.102743 1.099372 1.099819 1.106283 1.111551 1.121695 1.144661 1.184723 1.237557 1.284668 1.318532 1.338764 1.352053 1.361452 1.368015 1.372293 1.373697 1.373257 1.372314 1.372048 1.371834 1.371476 1.371103 1.370813 1.370476 1.370166 1.370026 1.370296 1.371562 1.372947 1.373318 1.371934 1.370718 1.367971 1.360666 1.343859 1.307142 1.245769 1.163539 1.095098 1.065557 1.065614 1.074716 1.073812 1.073432 1.076207 1.079323 1.080459 1.080709 1.080647 1.080287 1.079642 1.078668 1.077399 1.075889 1.07416 1.072038 1.06969 1.06738 1.06535 1.063498 1.061764 1.060141 1.058634 1.057332 1.056135 1.054899 1.053492 1.051969 1.050365 1.048687 1.046934 1.045049 1.043093 1.041161 1.03935 1.037692 1.036079 1.034394 1.031786 1.023932 1.016245 1.016873 1.030948 1.045093 1.068389 1.111218 1.175776 1.252354 1.312005 1.349419 1.367764 1.375534 1.378354 1.379335 1.380912 1.382051 1.382128 1.381053 1.377563 1.364299 1.348396 1.345767 1.371246 1.414251 1.447552 1.467029 1.472632 1.471874 1.471272 1.470656 1.470349 1.470356
1.433438 1.433475 1.431884 1.428549 1.425093 1.421481 1.41717 1.409928 1.401147 1.391517 1.382018 1.372149 1.361836 1.351441 1.34134 1.331118 1.321453 1.313582 1.308859 1.307441 1.308937 1.312871 1.318911 1.327983 1.33825 1.347735 1.355198 1.361584 1.367285 1.372325 1.376718 1.380452 1.383723 1.386737 1.38966 1.392462 1.395081 1.39748 1.399658 1.401801 1.403729 1.405195 1.405993 1.40624 1.406005 1.405299 1.404107 1.402313 1.399994 1.397272 1.394259 1.39081 1.386901 1.382564 1.377796 1.372299 1.366232 1.359943 1.353812 1.347678 1.341507 1.335386 1.329396 1.323475 1.317744 1.312404 1.30767 1.303614 1.300189 1.297331 1.295036 1.293731 1.293021 1.292285 1.290966 1.289328 1.287478 1.28538 1.282991 1.280256 1.277231 1.273999 1.270633 1.267059 1.263276 1.259318 1.255199 1.250781 1.246177 1.241584 1.237199 1.232962 1.228829 1.224793 1.220864 1.217156 1.213564 1.209919 1.206055 1.202014 1.197858 1.193626 1.18933 1.184807 1.180224 1.175848 1.171942 1.168438 1.165275 1.162436 1.15993 1.157938 1.156284 1.154695 1.152924 1.151101 1.149265 1.147386 1.145441 1.143467 1.141437 1.139301 1.13701 1.134558 1.131979 1.129313 1.126572 1.123612 1.120579 1.117701 1.11519 1.11296 1.11097 1.109229 1.107749 1.106574 1.105658 1.104932 1.104354 1.104056 1.103922 1.103777 1.103055 1.099463 1.096015 1.097041 1.10512 1.112229 1.124789 1.150945 1.194666 1.251329 1.300018 1.333344 1.351456 1.361147 1.366655 1.370065 1.372773 1.373687 1.373258 1.37248 1.372225 1.37204 1.37177 1.371499 1.371285 1.371021 1.370785 1.37071 1.371027 1.372314 1.373709 1.374097 1.372754 1.37162 1.368969 1.361744 1.344961 1.30815 1.246388 1.163201 1.093507 1.063015 1.062587 1.071445 1.070184 1.069529 1.072162 1.075201 1.076264 1.076482 1.07643 1.076103 1.075497 1.07458 1.073384 1.071961 1.07033 1.068329 1.066115 1.063928 1.061987 1.060196 1.058505 1.056912 1.055427 1.054108 1.052886 1.051664 1.050353 1.048993 1.047606 1.046191 1.044747 1.043249 1.041726 1.040216 1.038769 1.037453 1.036154 1.034732 1.032269 1.024152 1.016159 1.016998 1.032168 1.047592 1.0725 1.117213 1.183458 1.261209 1.320712 1.357284 1.374451 1.380548 1.381478 1.380767 1.38139 1.382138 1.382097 1.380994 1.377403 1.364022 1.348024 1.345379 1.37096 1.41412 1.44751 1.467025 1.472636 1.471877 1.471274 1.470657 1.47035 1.470357
1.433247 1.433285 1.431589 1.428028 1.424325 1.420435 1.415949 1.408155 1.398641 1.388086 1.377506 1.366331 1.354451 1.342234 1.330079 1.317464 1.305169 1.294718 1.287863 1.284888 1.285443 1.289057 1.295374 1.305454 1.317113 1.328009 1.336689 1.344235 1.351079 1.357231 1.362701 1.367499 1.37182 1.375859 1.379769 1.383535 1.387093 1.390402 1.39346 1.396477 1.399255 1.401532 1.403099 1.404101 1.404622 1.404675 1.404255 1.403286 1.401834 1.399998 1.39786 1.395307 1.392325 1.388951 1.385181 1.380758 1.37583 1.3707 1.36569 1.36064 1.355518 1.350399 1.345345 1.340248 1.335241 1.330554 1.326432 1.322914 1.319932 1.317416 1.315353 1.314168 1.313457 1.312593 1.311005 1.308939 1.306512 1.303702 1.300465 1.296641 1.292358 1.287826 1.283247 1.278482 1.273506 1.268374 1.263115 1.257565 1.251863 1.246256 1.241 1.236051 1.231352 1.226884 1.222658 1.218904 1.215421 1.211881 1.207965 1.203776 1.199411 1.194904 1.19026 1.185261 1.180126 1.175208 1.170855 1.166973 1.163483 1.160373 1.157658 1.155546 1.153835 1.152213 1.150402 1.14855 1.1467 1.144817 1.142875 1.140922 1.13892 1.136806 1.134517 1.132052 1.129448 1.126747 1.12396 1.120936 1.117827 1.114873 1.112292 1.109993 1.107936 1.106139 1.104619 1.103396 1.102448 1.101748 1.101291 1.101222 1.101382 1.101544 1.101057 1.097395 1.093904 1.095381 1.104672 1.113054 1.127303 1.155801 1.202286 1.261755 1.311465 1.344317 1.360924 1.368065 1.370687 1.371629 1.373064 1.373586 1.373185 1.372563 1.372331 1.37218 1.371991 1.371813 1.371671 1.371481 1.37132 1.371304 1.37165 1.372935 1.37431 1.37467 1.373299 1.372124 1.369425 1.36215 1.345317 1.308426 1.246465 1.162811 1.092409 1.061212 1.060266 1.068764 1.067132 1.066188 1.068643 1.071574 1.072558 1.072757 1.07274 1.072475 1.07194 1.071117 1.070038 1.068749 1.067265 1.065445 1.063427 1.061424 1.059632 1.057959 1.056365 1.054858 1.053449 1.052165 1.05097 1.049818 1.048666 1.047539 1.046443 1.045371 1.044316 1.043295 1.042295 1.041296 1.040294 1.039393 1.038477 1.037391 1.03517 1.02704 1.01899 1.020055 1.035936 1.052201 1.078067 1.12368 1.190462 1.268365 1.32733 1.363086 1.379318 1.384151 1.383632 1.381586 1.381442 1.381884 1.381767 1.380656 1.376979 1.363449 1.347303 1.344638 1.370431 1.413883 1.447434 1.467016 1.472641 1.47188 1.471276 1.470658 1.47035 1.470357
1.433103 1.433143 1.43137 1.427639 1.423751 1.419658 1.414897 1.406628 1.396461 1.385047 1.373399 1.360865 1.347276 1.332978 1.31836 1.302718 1.286916 1.272832 1.262778 1.257246 1.256 1.258645 1.264847 1.275882 1.289106 1.301662 1.31178 1.32072 1.328961 1.336485 1.34329 1.349407 1.355028 1.360337 1.365479 1.370452 1.375185 1.379628 1.38378 1.387878 1.391702 1.394966 1.39746 1.399366 1.400777 1.401715 1.402182 1.402146 1.401662 1.400801 1.399614 1.398023 1.396031 1.393673 1.39095 1.38765 1.383908 1.379978 1.37612 1.372182 1.36814 1.364058 1.359983 1.355769 1.351562 1.347612 1.344185 1.341289 1.338837 1.336751 1.335017 1.334043 1.333425 1.332546 1.330837 1.32852 1.325715 1.322409 1.318551 1.313892 1.308604 1.302994 1.297373 1.291543 1.285462 1.279203 1.272813 1.266089 1.259205 1.252481 1.24626 1.240512 1.235172 1.230212 1.225654 1.221855 1.218508 1.215108 1.211169 1.206873 1.20234 1.197584 1.192575 1.187032 1.181245 1.175682 1.170808 1.166494 1.162638 1.159224 1.156268 1.154006 1.152217 1.15055 1.148695 1.14682 1.144973 1.14311 1.141201 1.139311 1.137387 1.135344 1.133095 1.130649 1.128048 1.125334 1.122519 1.119441 1.116262 1.113236 1.110595 1.108237 1.106126 1.104287 1.102741 1.101486 1.100524 1.099861 1.099531 1.0997 1.100154 1.100605 1.100326 1.0967 1.093237 1.094943 1.104753 1.11345 1.128222 1.157851 1.206073 1.267441 1.317904 1.350574 1.366385 1.372126 1.373096 1.372563 1.373219 1.373495 1.37311 1.372585 1.372376 1.372261 1.372143 1.372043 1.371967 1.371855 1.371771 1.371807 1.372155 1.373405 1.374713 1.374978 1.37347 1.372058 1.369081 1.361548 1.344532 1.307543 1.24559 1.162086 1.091693 1.060148 1.058676 1.066692 1.064695 1.063461 1.0657 1.068483 1.069382 1.069574 1.06961 1.069433 1.068999 1.068302 1.067379 1.066266 1.064976 1.063387 1.06162 1.059858 1.058267 1.056764 1.05532 1.053951 1.052671 1.051471 1.050354 1.049325 1.048392 1.047562 1.046824 1.046162 1.045568 1.045097 1.044693 1.044276 1.043788 1.043362 1.042891 1.042206 1.040336 1.032511 1.024733 1.026019 1.042056 1.058515 1.084434 1.129725 1.195751 1.272782 1.33094 1.366032 1.381675 1.385781 1.384433 1.38161 1.381013 1.381284 1.381135 1.380028 1.376284 1.362572 1.346214 1.343517 1.369639 1.413532 1.447323 1.467004 1.472652 1.471888 1.471282 1.470661 1.470351 1.470358
1.433009 1.433051 1.431227 1.427385 1.423377 1.419157 1.41402 1.405359 1.394633 1.382431 1.369703 1.355697 1.340147 1.32332 1.305527 1.285726 1.2648 1.245054 1.229635 1.219391 1.214381 1.214469 1.219485 1.231138 1.246128 1.260769 1.272736 1.283548 1.293737 1.303231 1.31199 1.32005 1.327606 1.334831 1.341859 1.348693 1.355246 1.361447 1.367293 1.373061 1.37849 1.383263 1.387163 1.390426 1.393162 1.395396 1.397146 1.398436 1.399301 1.399767 1.39985 1.39952 1.3988 1.397726 1.396304 1.394379 1.392066 1.389557 1.387036 1.384371 1.381549 1.378627 1.375638 1.372405 1.369084 1.36595 1.363286 1.361067 1.359191 1.357575 1.3562 1.355454 1.354941 1.354063 1.352267 1.349744 1.34661 1.342859 1.338428 1.332971 1.326692 1.319995 1.313305 1.306368 1.299117 1.291642 1.284006 1.275982 1.267766 1.259738 1.252311 1.245484 1.2392 1.233442 1.228255 1.224122 1.220645 1.217161 1.213043 1.208599 1.203911 1.198882 1.193352 1.186933 1.180077 1.173484 1.167867 1.163052 1.158859 1.155228 1.152135 1.14988 1.148213 1.146726 1.145054 1.143402 1.141819 1.140246 1.138645 1.137114 1.135572 1.133882 1.131915 1.129698 1.127284 1.124715 1.122001 1.118961 1.115777 1.112731 1.110084 1.107712 1.105581 1.103728 1.102177 1.100899 1.099924 1.0993 1.099107 1.099541 1.100317 1.101058 1.100968 1.097515 1.09417 1.095853 1.105371 1.113219 1.127137 1.156605 1.205701 1.268439 1.319688 1.352568 1.368204 1.373488 1.373877 1.37281 1.373187 1.373379 1.373004 1.372524 1.37234 1.372264 1.372203 1.372163 1.372142 1.372096 1.372078 1.372159 1.372512 1.373728 1.374979 1.375176 1.373595 1.372074 1.368973 1.361334 1.344262 1.307307 1.245528 1.162351 1.09209 1.060169 1.05804 1.065439 1.062998 1.061421 1.063409 1.066031 1.066851 1.067069 1.067213 1.067189 1.066922 1.06643 1.065749 1.064905 1.063907 1.062661 1.061262 1.059855 1.058568 1.057328 1.056121 1.054972 1.053898 1.052851 1.051875 1.051037 1.050403 1.04996 1.049675 1.049522 1.049492 1.04968 1.049984 1.05025 1.050358 1.050473 1.050499 1.050268 1.048837 1.041629 1.034427 1.035874 1.051413 1.067328 1.092292 1.13591 1.199751 1.274772 1.331775 1.366295 1.381635 1.385481 1.383872 1.380821 1.380099 1.380361 1.380259 1.379199 1.375436 1.361559 1.344985 1.342267 1.368769 1.413151 1.447204 1.466991 1.47267 1.471901 1.47129 1.470665 1.470353 1.47036
1.432914 1.432957 1.431082 1.427128 1.422996 1.41864 1.41332 1.404336 1.393145 1.380243 1.366475 1.350965 1.333311 1.313638 1.292083 1.267069 1.239327 1.211565 1.188029 1.170104 1.158398 1.153365 1.155307 1.166795 1.18364 1.200865 1.215209 1.22857 1.241545 1.253942 1.265637 1.276654 1.287171 1.29734 1.307273 1.316968 1.326297 1.335159 1.343542 1.351775 1.359539 1.366473 1.372356 1.377497 1.382029 1.38598 1.389384 1.392341 1.39485 1.396888 1.398431 1.399513 1.400181 1.400469 1.400393 1.39986 1.398959 1.397823 1.396567 1.395087 1.393389 1.391526 1.389525 1.387187 1.384685 1.382307 1.380347 1.378753 1.377413 1.376245 1.375226 1.374719 1.374344 1.373531 1.371751 1.369168 1.365891 1.361913 1.357163 1.351217 1.344292 1.336845 1.32938 1.321598 1.313411 1.304918 1.296196 1.286979 1.277492 1.268183 1.259565 1.251662 1.24443 1.237871 1.232059 1.227617 1.224054 1.220529 1.216256 1.21167 1.206826 1.201522 1.19547 1.188174 1.180234 1.172581 1.166181 1.16082 1.156244 1.15235 1.14908 1.146797 1.145224 1.143894 1.142393 1.140959 1.139643 1.138371 1.137093 1.135948 1.134818 1.13351 1.131847 1.129874 1.127661 1.125249 1.122646 1.119649 1.116462 1.1134 1.110752 1.108377 1.106238 1.104382 1.102838 1.101553 1.100581 1.100006 1.099949 1.100644 1.101728 1.10273 1.1028 1.099581 1.096393 1.097897 1.106657 1.113035 1.125329 1.153831 1.203171 1.266845 1.318833 1.352115 1.367902 1.373238 1.373645 1.372588 1.372987 1.3732 1.372844 1.372389 1.372239 1.372207 1.372195 1.372207 1.372237 1.372262 1.372312 1.372432 1.372768 1.373919 1.375072 1.375139 1.373383 1.371564 1.368115 1.360164 1.342905 1.30597 1.24457 1.162308 1.092857 1.0609 1.058119 1.064791 1.061916 1.059998 1.061699 1.064123 1.064858 1.065114 1.065384 1.065537 1.065464 1.065208 1.064803 1.064266 1.063601 1.062741 1.061756 1.06075 1.059811 1.058878 1.057952 1.057069 1.056246 1.055397 1.054607 1.054008 1.053721 1.053713 1.05393 1.054332 1.054909 1.055799 1.056848 1.057831 1.058569 1.059253 1.059807 1.060063 1.059134 1.052743 1.046323 1.047932 1.062634 1.077619 1.101082 1.142245 1.203015 1.275269 1.330848 1.364815 1.380005 1.38386 1.382328 1.379377 1.378728 1.379073 1.379058 1.378061 1.37429 1.360206 1.343344 1.340597 1.367611 1.412647 1.447047 1.466974 1.472688 1.471913 1.471299 1.470669 1.470355 1.470362
1.432819 1.432862 1.430935 1.426867 1.422609 1.418106 1.412783 1.403541 1.391981 1.378493 1.3638 1.346893 1.327211 1.304687 1.279197 1.248448 1.21278 1.175124 1.140933 1.112247 1.090474 1.077075 1.073296 1.083255 1.101721 1.121877 1.139043 1.155649 1.172363 1.188775 1.204601 1.219819 1.234558 1.24891 1.262942 1.276629 1.289782 1.302252 1.314019 1.325477 1.336237 1.345888 1.354212 1.361614 1.368253 1.374167 1.379412 1.384162 1.388388 1.392017 1.395001 1.397439 1.399404 1.400935 1.402055 1.40273 1.403027 1.403031 1.402811 1.402294 1.401503 1.400496 1.399295 1.3977 1.39589 1.394163 1.392808 1.391761 1.390904 1.390156 1.389493 1.389253 1.389077 1.388425 1.386799 1.384345 1.381167 1.377253 1.372528 1.366545 1.359506 1.351867 1.344143 1.336006 1.327356 1.318298 1.308908 1.298841 1.288366 1.278053 1.268571 1.259968 1.252193 1.245254 1.239244 1.234966 1.231789 1.228636 1.224495 1.21987 1.214887 1.209371 1.203056 1.195395 1.186998 1.178843 1.171953 1.166088 1.161007 1.156637 1.152949 1.150314 1.148446 1.146866 1.145146 1.143536 1.142089 1.14072 1.13938 1.138229 1.137127 1.135846 1.134178 1.132181 1.129932 1.127473 1.124812 1.121736 1.118458 1.115312 1.112603 1.110182 1.108011 1.106141 1.104605 1.103339 1.102407 1.101905 1.101972 1.102878 1.104201 1.105397 1.105577 1.102569 1.099515 1.100797 1.108735 1.113672 1.124307 1.151598 1.20072 1.264819 1.317284 1.350904 1.366896 1.372423 1.373027 1.372149 1.372665 1.372941 1.372623 1.3722 1.372096 1.372116 1.372156 1.372221 1.37231 1.372432 1.372577 1.372729 1.372986 1.373994 1.374928 1.374663 1.372367 1.369565 1.364928 1.355871 1.33788 1.300732 1.240033 1.159978 1.092887 1.061796 1.05856 1.06443 1.061262 1.059088 1.060462 1.062617 1.06324 1.06351 1.063875 1.064168 1.064254 1.064193 1.064021 1.063746 1.063367 1.062842 1.062217 1.061564 1.060938 1.06029 1.059632 1.059009 1.058439 1.057804 1.057226 1.056887 1.056955 1.05738 1.058089 1.059032 1.060195 1.06175 1.063501 1.065165 1.066519 1.067774 1.068868 1.069642 1.069266 1.063792 1.058271 1.060122 1.073987 1.088035 1.109932 1.148471 1.205895 1.275079 1.329087 1.362478 1.377563 1.38152 1.380182 1.37744 1.376917 1.377356 1.377413 1.376449 1.37263 1.358204 1.340875 1.338058 1.365845 1.411879 1.446807 1.466949 1.472706 1.471926 1.471307 1.470673 1.470356 1.470364
1.432765 1.43281 1.430854 1.426724 1.422397 1.417818 1.412391 1.402968 1.391138 1.377206 1.361782 1.343736 1.322355 1.297367 1.268361 1.232258 1.188823 1.140965 1.095228 1.054274 1.020403 0.9963587 0.9847364 0.9918648 1.01148 1.034551 1.054586 1.074706 1.095656 1.116722 1.13739 1.157565 1.177278 1.196517 1.215273 1.233497 1.25093 1.267376 1.282807 1.297691 1.311574 1.324007 1.334783 1.344404 1.353067 1.360825 1.367759 1.374108 1.379822 1.384806 1.389004 1.392567 1.395591 1.398121 1.400191 1.401808 1.403025 1.4039 1.404473 1.4047 1.404617 1.404288 1.403735 1.402766 1.401564 1.400421 1.399617 1.399082 1.398697 1.398381 1.39811 1.398203 1.398315 1.397941 1.396618 1.394488 1.391648 1.388087 1.38373 1.378165 1.371567 1.364336 1.356922 1.348986 1.340432 1.331366 1.321848 1.3114 1.300361 1.289486 1.279688 1.271024 1.263406 1.256818 1.251352 1.248015 1.245976 1.243852 1.240346 1.235942 1.230966 1.225458 1.219391 1.212262 1.20449 1.196818 1.19001 1.183816 1.178126 1.173009 1.168565 1.165079 1.162284 1.159762 1.157135 1.15462 1.152274 1.15004 1.147885 1.145961 1.144131 1.142176 1.139892 1.137332 1.134574 1.131665 1.128616 1.125226 1.121697 1.118345 1.11546 1.112907 1.110652 1.108739 1.107199 1.10599 1.105156 1.104766 1.104937 1.105971 1.107424 1.108717 1.108947 1.106052 1.103063 1.104183 1.111598 1.115722 1.125375 1.151778 1.200399 1.264328 1.316788 1.350438 1.366444 1.371975 1.372586 1.371724 1.372274 1.372602 1.372346 1.371989 1.371948 1.372028 1.37213 1.372257 1.372422 1.372696 1.372987 1.373167 1.373249 1.373992 1.374516 1.373564 1.370051 1.364925 1.357366 1.345484 1.325581 1.287776 1.228494 1.15309 1.091039 1.062341 1.059046 1.064048 1.060869 1.058605 1.059603 1.061374 1.061833 1.062063 1.062441 1.062783 1.062933 1.062963 1.062912 1.06278 1.062565 1.062235 1.061829 1.061398 1.060985 1.060541 1.06009 1.059679 1.05933 1.058903 1.058543 1.058466 1.058868 1.059689 1.060841 1.06227 1.063955 1.066089 1.06845 1.070723 1.072655 1.074474 1.076125 1.077454 1.077684 1.073169 1.068614 1.070853 1.084131 1.097505 1.118133 1.154342 1.208632 1.274839 1.327265 1.360043 1.374979 1.378978 1.377758 1.37514 1.374671 1.375135 1.375196 1.374195 1.370232 1.355236 1.337148 1.334186 1.363148 1.410713 1.446444 1.466908 1.472739 1.47195 1.471322 1.47068 1.470359 1.470367
1.432754 1.4328 1.43084 1.426701 1.422364 1.417778 1.412206 1.402703 1.390738 1.376544 1.360615 1.341718 1.319003 1.291994 1.259973 1.21903 1.168202 1.110129 1.052282 0.9978516 0.9500492 0.9131129 0.8913705 0.8940605 0.9139745 0.9395343 0.962036 0.9854965 1.010785 1.036801 1.062722 1.088358 1.113591 1.138262 1.162251 1.185475 1.207599 1.22837 1.247755 1.266303 1.283497 1.29885 1.312176 1.324078 1.334794 1.344402 1.353012 1.360916 1.368057 1.374336 1.379701 1.384346 1.388385 1.39187 1.394845 1.397354 1.399438 1.401134 1.402462 1.403404 1.404012 1.404352 1.404451 1.404128 1.40357 1.403056 1.402845 1.402869 1.40301 1.403187 1.403377 1.40388 1.404367 1.404369 1.403462 1.401792 1.399452 1.396429 1.392658 1.387794 1.381977 1.375522 1.368766 1.361376 1.353272 1.344556 1.33527 1.324765 1.313465 1.302342 1.292606 1.2843 1.277287 1.271526 1.267096 1.26518 1.264729 1.264079 1.2617 1.258098 1.253752 1.24886 1.24357 1.237455 1.230747 1.223933 1.217495 1.211152 1.204929 1.199039 1.193725 1.189165 1.185109 1.181217 1.177158 1.173065 1.169049 1.165157 1.161451 1.158032 1.154769 1.151475 1.147965 1.144273 1.14049 1.136689 1.13292 1.129023 1.125144 1.121525 1.118389 1.115643 1.113266 1.111293 1.109756 1.108651 1.107981 1.107754 1.108032 1.109143 1.110654 1.111982 1.112231 1.109399 1.106444 1.107465 1.114588 1.118392 1.127595 1.153349 1.201202 1.264435 1.316512 1.350002 1.365958 1.371481 1.372105 1.371274 1.371869 1.372266 1.372096 1.371827 1.37186 1.372001 1.372162 1.372356 1.37262 1.373123 1.37364 1.373866 1.373682 1.374071 1.374001 1.371928 1.366219 1.356575 1.342909 1.324753 1.300593 1.261661 1.205785 1.139647 1.086783 1.062565 1.059671 1.063653 1.060797 1.05864 1.059179 1.060408 1.060641 1.06078 1.061097 1.061402 1.061531 1.061561 1.061531 1.06144 1.061283 1.061034 1.060726 1.06041 1.060124 1.05982 1.059523 1.059287 1.059134 1.058911 1.058777 1.058968 1.059698 1.060897 1.06247 1.064358 1.066537 1.069208 1.072134 1.074984 1.077494 1.079895 1.082139 1.084075 1.084983 1.081523 1.078049 1.080793 1.093585 1.106381 1.125813 1.159712 1.210796 1.273873 1.324622 1.356768 1.371588 1.375709 1.374703 1.372291 1.371899 1.372364 1.372378 1.371274 1.367083 1.351285 1.332127 1.328944 1.359513 1.409158 1.445964 1.466854 1.472789 1.471985 1.471346 1.470691 1.470364 1.470371
1.432743 1.432788 1.430824 1.426674 1.422326 1.417725 1.41218 1.402665 1.390671 1.376356 1.360105 1.340602 1.316876 1.288261 1.253735 1.208561 1.150944 1.083038 1.013029 0.9445031 0.8815371 0.8299844 0.7961678 0.7927877 0.8118293 0.8389829 0.8630136 0.8890626 0.918216 0.9489422 0.9800588 1.011264 1.04225 1.072661 1.102233 1.130825 1.158005 1.183452 1.207118 1.229629 1.250404 1.268916 1.284996 1.29935 1.312266 1.323853 1.33425 1.343791 1.35243 1.360074 1.366689 1.372502 1.377639 1.382159 1.386117 1.389592 1.392613 1.395194 1.397342 1.399066 1.400432 1.401509 1.402327 1.402728 1.402892 1.403081 1.403532 1.404179 1.404908 1.40564 1.406352 1.407324 1.408249 1.408691 1.408269 1.407137 1.405383 1.402993 1.399911 1.39588 1.390998 1.38548 1.379538 1.372856 1.365377 1.357205 1.348358 1.33802 1.326692 1.315568 1.306149 1.298467 1.292318 1.287614 1.284402 1.284008 1.285162 1.285941 1.284625 1.281694 1.27783 1.273459 1.268987 1.264094 1.258754 1.253118 1.2473 1.241013 1.234433 1.227921 1.221868 1.216316 1.211039 1.205792 1.200321 1.194665 1.18897 1.183368 1.178003 1.172925 1.168027 1.163179 1.158246 1.153238 1.148256 1.143403 1.138767 1.134245 1.129927 1.125968 1.122516 1.119531 1.117004 1.114959 1.11342 1.112441 1.111969 1.111924 1.112289 1.113417 1.114908 1.116196 1.116412 1.113599 1.110643 1.111546 1.118403 1.122067 1.13099 1.156032 1.202716 1.264709 1.316061 1.349247 1.365131 1.370686 1.371391 1.37066 1.371343 1.371837 1.371773 1.371608 1.371729 1.371941 1.372167 1.372431 1.372803 1.373563 1.37433 1.374592 1.374077 1.374019 1.373211 1.369746 1.36125 1.345504 1.322766 1.294434 1.263341 1.223604 1.174507 1.122355 1.081495 1.062835 1.060569 1.063475 1.061111 1.059163 1.05921 1.059822 1.059799 1.059814 1.060024 1.060238 1.060293 1.060264 1.060191 1.060075 1.05991 1.059665 1.05938 1.059111 1.058905 1.058706 1.058543 1.05847 1.058512 1.058509 1.058625 1.059106 1.060171 1.061745 1.063729 1.06606 1.068714 1.071888 1.075342 1.078741 1.081821 1.084812 1.087669 1.090243 1.091872 1.089534 1.087213 1.090529 1.102882 1.11515 1.133419 1.164981 1.21273 1.272449 1.321344 1.352783 1.367488 1.371778 1.371056 1.368908 1.368608 1.369057 1.368984 1.367727 1.363233 1.346409 1.325874 1.322395 1.355012 1.407264 1.445387 1.466789 1.472838 1.472019 1.471368 1.470701 1.470368 1.470376
1.432732 1.432777 1.430808 1.426647 1.422287 1.417668 1.412224 1.402732 1.390761 1.376408 1.359962 1.340042 1.315578 1.285745 1.249249 1.200607 1.1372 1.060575 0.9794017 0.8975292 0.8197978 0.7536236 0.7073163 0.6971045 0.7142665 0.7418498 0.7660524 0.7932877 0.8249888 0.8592442 0.8945321 0.9304717 0.9665649 1.002238 1.037055 1.070799 1.102921 1.133009 1.160979 1.187515 1.211962 1.233744 1.252698 1.26962 1.28485 1.298527 1.310822 1.322093 1.33232 1.341434 1.349428 1.356548 1.362924 1.368621 1.373703 1.378283 1.382374 1.385967 1.389058 1.391683 1.393923 1.395849 1.397497 1.398731 1.399725 1.400717 1.401915 1.403261 1.404648 1.405998 1.407289 1.408786 1.410201 1.411134 1.411246 1.410703 1.409586 1.407878 1.405534 1.40239 1.398497 1.393968 1.388892 1.382977 1.376199 1.368663 1.360371 1.350355 1.339189 1.328263 1.319352 1.312478 1.30735 1.303792 1.301789 1.302799 1.305324 1.307197 1.30651 1.303593 1.299456 1.294969 1.291032 1.28747 1.283829 1.279742 1.274784 1.268725 1.26195 1.254985 1.248395 1.242042 1.235737 1.229375 1.222838 1.216117 1.209315 1.202548 1.195943 1.189517 1.183226 1.177028 1.170875 1.164764 1.15878 1.153023 1.147582 1.142398 1.137545 1.133145 1.129317 1.12606 1.123365 1.12123 1.119671 1.11881 1.118528 1.118643 1.119044 1.120105 1.121475 1.122623 1.122722 1.119873 1.116858 1.11755 1.124005 1.127478 1.136023 1.16006 1.205052 1.265219 1.315485 1.348199 1.363961 1.369552 1.370365 1.369766 1.370557 1.371168 1.371232 1.371192 1.371419 1.371723 1.372033 1.372377 1.372846 1.373832 1.374806 1.375058 1.374163 1.373544 1.371875 1.366941 1.355634 1.333485 1.300272 1.25901 1.219048 1.179846 1.141111 1.105521 1.076886 1.063499 1.061826 1.063743 1.061841 1.06009 1.059683 1.059718 1.059443 1.059319 1.059401 1.059499 1.05945 1.05933 1.059178 1.058998 1.058787 1.058501 1.058193 1.057935 1.057786 1.057687 1.05766 1.057762 1.058017 1.058267 1.058674 1.059478 1.060893 1.062841 1.065223 1.067977 1.071077 1.074708 1.078636 1.082539 1.086162 1.089729 1.093191 1.096404 1.09876 1.097549 1.096389 1.100302 1.11228 1.124101 1.141297 1.170589 1.214977 1.27119 1.318047 1.348642 1.363149 1.367547 1.367045 1.365098 1.364837 1.365229 1.365034 1.36358 1.358707 1.340628 1.318396 1.314547 1.34968 1.405063 1.444725 1.466716 1.472887 1.472054 1.471391 1.470712 1.470373 1.470381
1.432725 1.432771 1.430803 1.426647 1.422292 1.417677 1.412291 1.402846 1.390934 1.376604 1.360067 1.339898 1.314959 1.284304 1.246431 1.195266 1.127496 1.044085 0.9539984 0.8612539 0.7712984 0.6928485 0.6358625 0.6195824 0.634581 0.6616078 0.6846026 0.7112283 0.7433751 0.7789072 0.8160889 0.854562 0.8937216 0.9328312 0.9713109 1.008863 1.044827 1.078687 1.110292 1.140339 1.168086 1.192893 1.214569 1.233963 1.251457 1.267221 1.281445 1.294474 1.306337 1.317019 1.32655 1.335167 1.342988 1.350079 1.356509 1.362421 1.367806 1.372631 1.376876 1.380609 1.383925 1.386894 1.389558 1.391811 1.393814 1.395771 1.397854 1.400022 1.402175 1.404241 1.4062 1.408301 1.410278 1.411771 1.412484 1.412594 1.412174 1.411203 1.409646 1.407436 1.404573 1.401061 1.396871 1.39175 1.385709 1.37886 1.371191 1.361604 1.350741 1.340169 1.331904 1.325978 1.321972 1.319583 1.318689 1.320903 1.324487 1.327035 1.326418 1.322636 1.317188 1.311681 1.307901 1.305888 1.304463 1.302441 1.298621 1.292925 1.286039 1.278711 1.271736 1.264734 1.257567 1.250327 1.243113 1.235934 1.228764 1.22158 1.214354 1.207091 1.199853 1.192715 1.185757 1.178983 1.172417 1.166099 1.160056 1.154242 1.148778 1.143837 1.139587 1.136048 1.133178 1.130936 1.129308 1.128497 1.128319 1.128491 1.128811 1.129666 1.130763 1.131622 1.131477 1.12851 1.125357 1.1257 1.131531 1.1346 1.1425 1.165155 1.207991 1.265877 1.314771 1.346878 1.362463 1.368071 1.368989 1.368529 1.36944 1.370188 1.370407 1.370519 1.370877 1.371306 1.371731 1.372167 1.372712 1.37385 1.374938 1.375117 1.37382 1.372529 1.369917 1.363643 1.350134 1.323105 1.281425 1.228983 1.181416 1.144142 1.115862 1.094014 1.074411 1.064687 1.063369 1.064551 1.062926 1.061276 1.060524 1.060125 1.059633 1.059366 1.059306 1.059271 1.0591 1.058864 1.058606 1.058334 1.058046 1.057685 1.057318 1.057043 1.05694 1.05694 1.05706 1.057355 1.057848 1.058391 1.059133 1.060296 1.062074 1.064393 1.067158 1.070309 1.073818 1.077852 1.082193 1.086544 1.090674 1.094789 1.098837 1.102676 1.105748 1.105629 1.105596 1.11012 1.121821 1.133325 1.149616 1.176819 1.21796 1.270658 1.315336 1.344918 1.359071 1.363386 1.36289 1.360941 1.360585 1.360849 1.360489 1.358795 1.353455 1.333854 1.309548 1.305243 1.343445 1.402548 1.443982 1.466633 1.472948 1.472096 1.471419 1.470725 1.470378 1.470386
1.432723 1.432768 1.43081 1.426674 1.422341 1.417741 1.412636 1.403371 1.391716 1.377668 1.361365 1.341375 1.316551 1.285895 1.247806 1.195877 1.126408 1.040024 0.9458634 0.8479903 0.7520924 0.6675119 0.6050646 0.5859264 0.5999038 0.6260076 0.6466179 0.6704026 0.6997501 0.7325576 0.7671252 0.8032988 0.8406051 0.8783655 0.9160188 0.9532568 0.9893983 1.023871 1.056445 1.087748 1.116967 1.143369 1.166671 1.187662 1.206742 1.224101 1.239918 1.254416 1.267735 1.279984 1.291269 1.301728 1.311424 1.320398 1.328712 1.33653 1.343801 1.350449 1.356431 1.361858 1.366828 1.371405 1.375632 1.379457 1.383004 1.386415 1.38981 1.393179 1.396443 1.399536 1.402444 1.405402 1.408173 1.410447 1.411985 1.412976 1.413482 1.413472 1.412921 1.411884 1.410285 1.407999 1.404859 1.400671 1.395499 1.389464 1.382543 1.373507 1.363072 1.352986 1.345511 1.340688 1.337939 1.336786 1.336984 1.340308 1.34478 1.34776 1.346885 1.341651 1.334126 1.326951 1.323276 1.323502 1.325254 1.326117 1.323875 1.31873 1.311794 1.304119 1.296824 1.289235 1.281231 1.273112 1.265224 1.257601 1.250081 1.242486 1.234611 1.226434 1.218135 1.209932 1.202062 1.194541 1.187325 1.180385 1.173675 1.167172 1.161049 1.155519 1.150807 1.146991 1.143958 1.141574 1.139741 1.138738 1.138365 1.138274 1.138196 1.13849 1.138953 1.139207 1.13859 1.135335 1.131925 1.131876 1.137116 1.139811 1.147177 1.16872 1.209814 1.265847 1.31364 1.345287 1.360776 1.366462 1.367542 1.367275 1.368359 1.369296 1.369721 1.370031 1.370554 1.371134 1.371694 1.37224 1.372875 1.374156 1.375353 1.375483 1.37386 1.371956 1.368495 1.361108 1.345953 1.315391 1.267364 1.206143 1.152585 1.117446 1.097744 1.085921 1.072449 1.06524 1.064336 1.065213 1.063863 1.062331 1.061377 1.06068 1.059988 1.059514 1.059213 1.058929 1.058523 1.058049 1.057552 1.057049 1.056545 1.055954 1.055371 1.054933 1.05476 1.054766 1.054958 1.055386 1.056075 1.056893 1.057967 1.059488 1.061621 1.064299 1.067436 1.070974 1.074887 1.079312 1.084056 1.088864 1.093536 1.098258 1.102965 1.107514 1.111392 1.112429 1.113596 1.118867 1.130525 1.141971 1.157655 1.183089 1.221248 1.270573 1.313033 1.341485 1.35513 1.359152 1.358412 1.356213 1.355583 1.355594 1.354965 1.35292 1.346936 1.325314 1.29822 1.293277 1.335549 1.399447 1.443082 1.466533 1.473019 1.472147 1.471453 1.47074 1.470385 1.470393
1.432721 1.432766 1.430817 1.426701 1.422389 1.417803 1.413002 1.403931 1.392554 1.378831 1.362844 1.343181 1.318711 1.288439 1.250748 1.199133 1.129796 1.043281 0.9488208 0.8504882 0.7539304 0.668501 0.6051439 0.5859546 0.6000547 0.6253335 0.6433109 0.6633113 0.6881306 0.7158273 0.7448644 0.7753494 0.80708 0.8395994 0.8725119 0.9055812 0.9382283 0.9699265 1.000418 1.030225 1.058533 1.084548 1.107863 1.129095 1.14865 1.166741 1.183513 1.198905 1.213278 1.226993 1.2403 1.253106 1.265333 1.276965 1.288021 1.298666 1.308764 1.318163 1.326781 1.334776 1.34224 1.349217 1.355745 1.361853 1.367597 1.373031 1.378203 1.383166 1.387877 1.392285 1.396389 1.40041 1.404154 1.40737 1.409881 1.411893 1.413443 1.414491 1.415021 1.41521 1.414896 1.413821 1.411701 1.408413 1.404077 1.398831 1.392647 1.384191 1.374247 1.364715 1.358054 1.354304 1.352727 1.352677 1.353792 1.357978 1.363069 1.366279 1.365083 1.358493 1.348974 1.340083 1.33637 1.338584 1.343106 1.346389 1.345456 1.340824 1.333954 1.326114 1.318674 1.310709 1.302118 1.293398 1.285143 1.27745 1.270009 1.262452 1.254352 1.245674 1.236714 1.227822 1.219397 1.211479 1.20394 1.196658 1.189482 1.182386 1.175621 1.169494 1.164334 1.16025 1.157062 1.154543 1.152522 1.151359 1.150824 1.150499 1.150039 1.149774 1.149594 1.149222 1.148104 1.144547 1.140853 1.140333 1.144839 1.147069 1.153746 1.173836 1.212623 1.266154 1.312411 1.343377 1.358693 1.364445 1.365703 1.365656 1.366929 1.368076 1.368731 1.369261 1.369972 1.370729 1.371449 1.372114 1.37282 1.374197 1.375437 1.375457 1.373444 1.370774 1.366294 1.357734 1.341187 1.308095 1.255732 1.188655 1.131404 1.098682 1.08573 1.081056 1.071843 1.06638 1.065766 1.066434 1.065267 1.063808 1.062699 1.061771 1.060897 1.060215 1.059668 1.059127 1.058474 1.057745 1.056989 1.056236 1.055493 1.054644 1.053816 1.053196 1.052946 1.052966 1.053246 1.053833 1.054749 1.055887 1.057343 1.059263 1.06177 1.064807 1.068302 1.072206 1.076491 1.081257 1.086349 1.091562 1.096743 1.102045 1.10739 1.112633 1.117301 1.119474 1.121812 1.127817 1.139451 1.150872 1.166003 1.189737 1.224944 1.270836 1.310933 1.338105 1.351117 1.354706 1.35357 1.350974 1.34996 1.349646 1.348689 1.346227 1.33947 1.315414 1.284902 1.279166 1.326427 1.39598 1.442099 1.466425 1.473091 1.472197 1.471486 1.470756 1.470391 1.4704
1.432719 1.432767 1.430828 1.426735 1.422449 1.417897 1.413006 1.403973 1.392647 1.378988 1.36307 1.343485 1.319115 1.28898 1.251486 1.200172 1.131306 1.045503 0.9520265 0.8550173 0.7600245 0.6761157 0.6139372 0.595786 0.6102867 0.6347712 0.6504104 0.6668757 0.6872312 0.7096951 0.73288 0.757089 0.7823665 0.8084854 0.8352409 0.8624864 0.8898025 0.9167833 0.9432097 0.9695092 0.9949629 1.018806 1.040557 1.060595 1.079351 1.097099 1.113955 1.129419 1.1442 1.159097 1.174625 1.190297 1.205797 1.220988 1.2358 1.250359 1.264381 1.277589 1.289834 1.301328 1.312142 1.322282 1.331783 1.340777 1.34923 1.357087 1.364335 1.371118 1.377445 1.383294 1.388685 1.393831 1.398589 1.402772 1.406262 1.409274 1.411827 1.413863 1.415376 1.416648 1.417435 1.417373 1.416093 1.41354 1.409888 1.405296 1.399736 1.391813 1.382367 1.373402 1.3675 1.364692 1.364098 1.364931 1.366739 1.371507 1.376963 1.380257 1.378783 1.371206 1.360154 1.349781 1.345728 1.348995 1.355083 1.359713 1.359496 1.355193 1.348447 1.340619 1.333178 1.325022 1.316116 1.307167 1.299042 1.291971 1.285443 1.278812 1.271348 1.263041 1.25431 1.245618 1.237499 1.230024 1.22295 1.216014 1.208898 1.201498 1.19421 1.187538 1.182017 1.177701 1.174362 1.171771 1.169758 1.168766 1.168476 1.168341 1.167897 1.167507 1.167115 1.166474 1.165091 1.161429 1.157557 1.156469 1.159901 1.161398 1.16689 1.184449 1.219195 1.268226 1.311555 1.341091 1.355907 1.361593 1.362974 1.363119 1.364546 1.365878 1.366751 1.367498 1.368399 1.369371 1.370292 1.371082 1.371794 1.373141 1.374262 1.37397 1.371297 1.367353 1.361238 1.350981 1.332933 1.29809 1.243613 1.174681 1.117378 1.088056 1.08038 1.080522 1.07429 1.069881 1.0691 1.069252 1.067989 1.066436 1.065118 1.063964 1.062935 1.062132 1.061475 1.060828 1.060069 1.05923 1.058369 1.057521 1.056699 1.05576 1.054858 1.054224 1.054058 1.054248 1.05477 1.055658 1.056929 1.058514 1.060465 1.062865 1.065785 1.069183 1.073007 1.077217 1.081787 1.086775 1.092072 1.097537 1.103068 1.108783 1.11459 1.120342 1.125614 1.128742 1.132056 1.138568 1.149941 1.161109 1.175469 1.197299 1.229337 1.271492 1.308931 1.334614 1.346881 1.34998 1.348417 1.345407 1.344 1.343377 1.342124 1.339268 1.331726 1.30508 1.270854 1.264282 1.317036 1.392538 1.441146 1.466321 1.473163 1.472247 1.471519 1.470771 1.470398 1.470406
1.432604 1.432652 1.430655 1.426434 1.422006 1.41729 1.412329 1.402987 1.391254 1.377116 1.360712 1.340597 1.315624 1.28481 1.246592 1.194614 1.125256 1.039255 0.9458308 0.8493361 0.755356 0.6726594 0.6114599 0.5938919 0.6082963 0.6318395 0.6455748 0.6593262 0.6763111 0.6948458 0.7136225 0.7330468 0.7533131 0.774341 0.7960535 0.8183564 0.8409595 0.8635742 0.8860383 0.9086946 0.9309638 0.952187 0.9718816 0.9902048 1.007627 1.024522 1.041004 1.056089 1.070893 1.08676 1.104559 1.123344 1.142498 1.161725 1.180821 1.199842 1.218311 1.235791 1.252046 1.267351 1.281744 1.295197 1.307745 1.319631 1.330732 1.340905 1.350097 1.358554 1.366344 1.373479 1.380005 1.386131 1.391764 1.39677 1.401083 1.40492 1.408281 1.4111 1.413374 1.415462 1.417059 1.417728 1.417049 1.415024 1.411869 1.407764 1.40269 1.395226 1.386261 1.377863 1.372662 1.370673 1.370899 1.372436 1.374766 1.379926 1.38559 1.388887 1.387178 1.378944 1.366796 1.355122 1.350179 1.35309 1.359129 1.363805 1.363576 1.3593 1.352631 1.344888 1.337477 1.329158 1.320065 1.311205 1.303836 1.298423 1.294094 1.289723 1.28412 1.277392 1.270124 1.262869 1.256266 1.25042 1.244921 1.2393 1.233001 1.225748 1.218156 1.211064 1.205351 1.200879 1.19742 1.194851 1.193119 1.192739 1.193228 1.193843 1.193963 1.194065 1.194085 1.193717 1.192455 1.189035 1.185218 1.183533 1.18553 1.185986 1.189663 1.203282 1.231611 1.273204 1.311373 1.338191 1.351921 1.357294 1.358699 1.358982 1.360492 1.361954 1.363017 1.363968 1.365064 1.366315 1.367507 1.368427 1.369024 1.370138 1.370856 1.36986 1.365925 1.359558 1.350305 1.336904 1.316602 1.280581 1.22669 1.161284 1.10903 1.085065 1.08185 1.085089 1.081061 1.077066 1.075379 1.074353 1.072555 1.070642 1.068971 1.067547 1.066401 1.065645 1.065137 1.064678 1.064087 1.063425 1.062762 1.062135 1.061554 1.060863 1.060233 1.059918 1.060141 1.060785 1.061809 1.063231 1.065061 1.067273 1.069866 1.072847 1.076222 1.079973 1.084072 1.088491 1.093207 1.098236 1.103523 1.108997 1.114613 1.120451 1.126407 1.132342 1.137887 1.141645 1.145584 1.152216 1.162911 1.173417 1.186607 1.206154 1.234639 1.272575 1.306919 1.330832 1.342249 1.344874 1.342966 1.339653 1.337952 1.337137 1.33572 1.332604 1.324401 1.29533 1.257554 1.250256 1.308421 1.38949 1.440322 1.466233 1.473222 1.472289 1.471547 1.470784 1.470403 1.470412
1.432374 1.432423 1.430298 1.425794 1.421051 1.415964 1.411024 1.401047 1.388473 1.373337 1.355919 1.334706 1.308485 1.276276 1.236572 1.183275 1.113007 1.026742 0.9335546 0.8381485 0.7461847 0.6659428 0.6068829 0.5903928 0.6047212 0.6273636 0.6396595 0.6513376 0.665655 0.6810222 0.6961988 0.7116307 0.7276134 0.7441784 0.7613478 0.7790484 0.797095 0.8153092 0.8335907 0.8521901 0.8706962 0.8886147 0.9055297 0.9213884 0.9367073 0.951983 0.9673542 0.9813458 0.9955112 1.011805 1.031529 1.053259 1.076047 1.09941 1.122975 1.146697 1.169862 1.191848 1.212319 1.231601 1.249697 1.266541 1.282171 1.296944 1.310653 1.323079 1.334145 1.344201 1.35338 1.361731 1.369326 1.376375 1.38283 1.38861 1.393689 1.398288 1.402389 1.405914 1.408868 1.411669 1.413962 1.415251 1.415084 1.41351 1.410783 1.407109 1.402482 1.395469 1.387017 1.379247 1.374796 1.373659 1.374719 1.376958 1.379806 1.385389 1.391286 1.39456 1.392505 1.383462 1.369909 1.356276 1.349298 1.350149 1.354427 1.357804 1.356683 1.351923 1.345042 1.33719 1.329533 1.320609 1.310947 1.302184 1.29637 1.294381 1.29446 1.294469 1.292421 1.288758 1.284368 1.279925 1.276175 1.273273 1.270563 1.267287 1.262593 1.255975 1.248351 1.241011 1.235309 1.230842 1.227352 1.224852 1.223422 1.223608 1.224787 1.226068 1.22672 1.22731 1.227762 1.227714 1.226665 1.223699 1.220179 1.218031 1.218498 1.217791 1.219336 1.228206 1.248512 1.280208 1.310973 1.33361 1.345602 1.350498 1.351987 1.352533 1.354172 1.35581 1.357126 1.358349 1.35971 1.36138 1.362975 1.364047 1.364367 1.365004 1.364934 1.362578 1.356148 1.344684 1.328446 1.307893 1.283242 1.247612 1.20048 1.148698 1.10919 1.092196 1.090929 1.093958 1.09068 1.086313 1.083046 1.080289 1.077539 1.075026 1.072901 1.071198 1.069978 1.069415 1.069279 1.069257 1.069065 1.068815 1.068599 1.068447 1.068364 1.068188 1.068101 1.06837 1.069227 1.070556 1.072297 1.074447 1.077007 1.08 1.083363 1.087016 1.090888 1.094996 1.09934 1.103904 1.108674 1.113622 1.11875 1.124065 1.129579 1.135334 1.141219 1.147108 1.152687 1.156828 1.16113 1.167621 1.177401 1.187014 1.198824 1.215909 1.240642 1.274034 1.304906 1.326753 1.337155 1.33922 1.336929 1.333308 1.331331 1.330398 1.328925 1.325651 1.316836 1.285268 1.243762 1.235764 1.299742 1.386522 1.439536 1.466149 1.47327 1.472322 1.471569 1.470794 1.470407 1.470416
1.432144 1.432196 1.429944 1.425157 1.420096 1.414651 1.409227 1.398375 1.384597 1.368014 1.349121 1.326316 1.298301 1.264107 1.222344 1.167379 1.096255 1.010283 0.9182123 0.8251569 0.7367998 0.6606727 0.6051626 0.5903543 0.604634 0.6263368 0.6375223 0.6475777 0.6596969 0.6723984 0.6845174 0.6964942 0.7086921 0.7212324 0.7342161 0.7475669 0.7611793 0.7749709 0.7888979 0.8031062 0.8173608 0.8313662 0.8448255 0.8574991 0.8699432 0.8827808 0.8961992 0.9082806 0.9209909 0.9369086 0.957817 0.9818655 1.007798 1.034943 1.062747 1.091031 1.118829 1.145309 1.170019 1.193316 1.215155 1.23542 1.254154 1.271826 1.288143 1.302813 1.315741 1.327385 1.337945 1.347508 1.356173 1.364146 1.37143 1.377995 1.383853 1.389225 1.394073 1.398308 1.401941 1.405444 1.408415 1.410308 1.410641 1.409508 1.407207 1.403969 1.399805 1.393284 1.385415 1.378357 1.374723 1.374483 1.376393 1.379324 1.382657 1.388603 1.394673 1.397887 1.395478 1.385678 1.370778 1.355103 1.34567 1.343589 1.345077 1.346277 1.343715 1.338251 1.331166 1.323313 1.31546 1.305889 1.295689 1.287357 1.283938 1.286654 1.292338 1.297539 1.299499 1.299174 1.29782 1.29624 1.295276 1.295119 1.294913 1.293708 1.290461 1.284515 1.277028 1.269632 1.264057 1.259661 1.256193 1.253817 1.252763 1.253592 1.255535 1.257562 1.258842 1.260046 1.261066 1.261468 1.260737 1.258255 1.255066 1.252589 1.251807 1.250156 1.249877 1.254489 1.267204 1.288771 1.311155 1.328569 1.338183 1.342314 1.343784 1.344555 1.34626 1.348035 1.3496 1.35111 1.352763 1.354942 1.357034 1.358278 1.358202 1.358134 1.356941 1.352717 1.342887 1.324066 1.296854 1.264358 1.233323 1.201918 1.169995 1.140438 1.117608 1.107402 1.106072 1.10676 1.103136 1.097858 1.092676 1.087936 1.083994 1.08073 1.078093 1.07611 1.074846 1.07457 1.074951 1.075523 1.075877 1.076189 1.076574 1.077054 1.077624 1.078124 1.07874 1.079739 1.081351 1.083467 1.086009 1.088948 1.092273 1.096063 1.100189 1.104483 1.108803 1.1132 1.117705 1.122319 1.127032 1.13178 1.13662 1.141634 1.146892 1.152398 1.158038 1.1637 1.169127 1.173441 1.177894 1.184058 1.192786 1.201371 1.211697 1.22627 1.247209 1.275877 1.302974 1.322478 1.331716 1.333176 1.330516 1.326634 1.324429 1.323463 1.322042 1.318715 1.309374 1.275371 1.230168 1.221564 1.291458 1.38378 1.438824 1.466073 1.473317 1.472355 1.471591 1.470805 1.470412 1.470421
1.431913 1.431969 1.42959 1.424518 1.419136 1.413338 1.407071 1.395144 1.379837 1.361387 1.340577 1.315703 1.285367 1.248636 1.204309 1.147486 1.075814 0.9909659 0.9010631 0.8116239 0.728245 0.6574865 0.6064555 0.5935417 0.6075383 0.6280729 0.6382836 0.6470116 0.6573024 0.6677951 0.6774085 0.6865466 0.69561 0.7047855 0.7142311 0.7238507 0.7335922 0.7434458 0.7534092 0.7635193 0.7736971 0.7838456 0.7938097 0.8032041 0.8126016 0.8227221 0.8338044 0.8436232 0.8544431 0.8693333 0.890501 0.915823 0.943837 0.9737396 1.004831 1.036807 1.068478 1.09882 1.127253 1.154138 1.179363 1.202758 1.224353 1.244716 1.263467 1.280245 1.294938 1.308096 1.319986 1.330726 1.340441 1.349331 1.357445 1.364804 1.371459 1.377623 1.383239 1.388206 1.392538 1.396758 1.400417 1.402925 1.403776 1.403109 1.401263 1.398499 1.39485 1.388902 1.381724 1.375485 1.372728 1.373399 1.376134 1.379694 1.383408 1.389512 1.395572 1.398658 1.396024 1.385862 1.370301 1.353481 1.34234 1.337754 1.336593 1.335652 1.331841 1.326066 1.319313 1.312082 1.30468 1.295274 1.285453 1.278336 1.277587 1.284477 1.2946 1.303603 1.308399 1.310372 1.311036 1.311284 1.311998 1.313385 1.314517 1.314395 1.311933 1.306401 1.299064 1.291714 1.286263 1.281891 1.278426 1.276226 1.275715 1.277474 1.280522 1.283627 1.285835 1.28797 1.289866 1.290971 1.290702 1.288646 1.285685 1.282955 1.281316 1.279055 1.277518 1.278987 1.285743 1.298702 1.313159 1.325035 1.331781 1.334676 1.335708 1.336343 1.337831 1.339536 1.341202 1.342891 1.344765 1.347445 1.350054 1.351477 1.35095 1.349979 1.347421 1.341157 1.327897 1.301479 1.26209 1.215682 1.17868 1.156934 1.146235 1.140264 1.132225 1.127161 1.125095 1.123207 1.118827 1.112439 1.105358 1.098683 1.093506 1.08944 1.086267 1.084002 1.082712 1.082771 1.083735 1.084975 1.085943 1.086887 1.087946 1.089127 1.090415 1.091659 1.09304 1.09481 1.097186 1.100067 1.103361 1.107019 1.111016 1.11548 1.120227 1.125013 1.129636 1.134181 1.138709 1.143235 1.147757 1.152179 1.156608 1.16119 1.166049 1.171156 1.176395 1.181671 1.18678 1.191076 1.195486 1.20117 1.208757 1.216213 1.224993 1.237072 1.254271 1.278129 1.301202 1.318116 1.326091 1.327007 1.324138 1.320186 1.317899 1.317028 1.315792 1.312558 1.302882 1.266893 1.218643 1.209704 1.284737 1.381623 1.438274 1.466014 1.473365 1.472389 1.471613 1.470815 1.470416 1.470425
1.431633 1.431693 1.429144 1.423694 1.417881 1.411589 1.404621 1.391385 1.374196 1.353399 1.330151 1.302639 1.269353 1.22943 1.181965 1.123156 1.051443 0.9687817 0.8822263 0.7976569 0.7204642 0.6560547 0.6101312 0.5991021 0.6124528 0.6315092 0.6408002 0.6484414 0.6572572 0.666019 0.6737396 0.6807676 0.6875158 0.6942152 0.7010612 0.7079324 0.7148076 0.7217247 0.7287073 0.7356946 0.742727 0.7498719 0.757107 0.7639625 0.7709864 0.7789286 0.7880561 0.7960612 0.8052865 0.8189774 0.8395397 0.8648165 0.8933142 0.9242063 0.956744 0.9905572 1.024349 1.056978 1.087765 1.11704 1.144621 1.170274 1.194006 1.216435 1.237108 1.255596 1.271761 1.286215 1.299268 1.311066 1.321748 1.331494 1.340402 1.348539 1.355991 1.362957 1.369357 1.375079 1.380139 1.385101 1.389475 1.392632 1.39405 1.393907 1.392585 1.390377 1.387345 1.38212 1.375814 1.370555 1.368747 1.370336 1.37384 1.377918 1.38182 1.387688 1.393369 1.396187 1.39358 1.38381 1.368955 1.352959 1.342201 1.337249 1.335394 1.333963 1.330349 1.32546 1.320062 1.31442 1.30859 1.300984 1.293191 1.288048 1.288766 1.296409 1.306794 1.315894 1.320909 1.323156 1.324069 1.324498 1.325273 1.326575 1.327553 1.327291 1.324775 1.319239 1.311911 1.30458 1.299138 1.294615 1.291039 1.289074 1.289451 1.292785 1.297699 1.302597 1.306323 1.309972 1.313274 1.315489 1.315898 1.314209 1.311325 1.308336 1.306153 1.303557 1.301269 1.300712 1.303396 1.310103 1.31821 1.325089 1.328759 1.329766 1.329522 1.32921 1.329887 1.331076 1.332487 1.334077 1.335954 1.338984 1.34202 1.343596 1.342614 1.340522 1.336426 1.328391 1.313088 1.282963 1.238148 1.186596 1.150261 1.138981 1.143395 1.150862 1.150641 1.148231 1.145712 1.142332 1.137269 1.1298 1.121078 1.112734 1.106424 1.101581 1.097874 1.095328 1.094023 1.094434 1.096 1.097926 1.099524 1.101119 1.102868 1.104762 1.106771 1.108764 1.110906 1.113421 1.116499 1.120056 1.123989 1.128229 1.132746 1.137705 1.14288 1.147969 1.152729 1.157271 1.161682 1.165991 1.170203 1.174197 1.178121 1.182174 1.186524 1.191114 1.195832 1.200597 1.205257 1.209375 1.213584 1.218671 1.225061 1.231314 1.238509 1.248136 1.261684 1.280672 1.299475 1.313554 1.32022 1.320789 1.318059 1.314418 1.312316 1.311733 1.310855 1.307906 1.298213 1.261135 1.211231 1.202444 1.280812 1.380407 1.437969 1.465981 1.473384 1.472403 1.471622 1.470819 1.470418 1.470427
1.431302 1.431366 1.428607 1.422679 1.416317 1.409399 1.40125 1.386131 1.366136 1.34173 1.314644 1.282917 1.244876 1.199798 1.147316 1.085555 1.014113 0.9350001 0.8533251 0.7754712 0.7065529 0.650512 0.6113659 0.6030517 0.6160301 0.6338608 0.6429302 0.6503775 0.6587079 0.6668595 0.6739708 0.6803064 0.686282 0.6921745 0.6982165 0.7042598 0.7102888 0.7163615 0.7225106 0.7286244 0.7347977 0.7411751 0.7478099 0.7542557 0.7609628 0.7685774 0.7773309 0.785233 0.794291 0.8072982 0.8263535 0.8496447 0.8759292 0.9045339 0.9348428 0.9665621 0.998552 1.029766 1.059546 1.088152 1.115367 1.140921 1.164776 1.1875 1.20861 1.227637 1.244397 1.259468 1.273155 1.285606 1.296951 1.307326 1.316863 1.32567 1.333859 1.341598 1.348783 1.355292 1.361134 1.366897 1.372061 1.37597 1.378097 1.378652 1.378059 1.376651 1.37453 1.370431 1.365473 1.361643 1.361085 1.363802 1.368176 1.372718 1.376535 1.381488 1.386078 1.388224 1.385834 1.377343 1.364794 1.351794 1.343563 1.340365 1.339798 1.339586 1.337607 1.334677 1.331412 1.327993 1.324445 1.319704 1.314878 1.31181 1.312523 1.317776 1.324856 1.331023 1.334222 1.335292 1.335262 1.334774 1.334471 1.334484 1.334163 1.332791 1.329519 1.323541 1.315961 1.308472 1.302828 1.297789 1.29382 1.292216 1.294321 1.300762 1.309258 1.31747 1.323887 1.330132 1.335762 1.339759 1.341216 1.339963 1.337077 1.333769 1.331139 1.328244 1.325318 1.323154 1.322637 1.324305 1.32687 1.328849 1.328896 1.326948 1.324102 1.321536 1.320398 1.320327 1.320916 1.321955 1.323454 1.326593 1.329916 1.331514 1.329815 1.325835 1.31935 1.309299 1.293458 1.265047 1.225283 1.182606 1.155344 1.150909 1.159478 1.169236 1.170819 1.168824 1.165531 1.160926 1.154821 1.145922 1.135398 1.12527 1.117648 1.111863 1.107516 1.104647 1.103363 1.104264 1.106634 1.109459 1.111877 1.114304 1.116925 1.119706 1.122604 1.125506 1.128563 1.131964 1.135875 1.140228 1.144909 1.149829 1.154948 1.160477 1.166142 1.171586 1.17652 1.181092 1.185413 1.189525 1.193441 1.197019 1.200442 1.203959 1.207776 1.211812 1.215962 1.220159 1.224304 1.22816 1.232077 1.236492 1.241628 1.246596 1.252126 1.25923 1.268999 1.282718 1.296651 1.307388 1.312613 1.313118 1.311049 1.308288 1.306783 1.306801 1.306564 1.304196 1.294898 1.25772 1.207741 1.199794 1.279668 1.3801 1.437896 1.465973 1.473376 1.472397 1.471618 1.470817 1.470417 1.470426
1.43097 1.431039 1.428067 1.421654 1.414727 1.407168 1.397494 1.380168 1.356755 1.32779 1.295727 1.258463 1.214153 1.162359 1.103613 1.039048 0.969644 0.8967432 0.8223411 0.7533113 0.6943696 0.6478624 0.6161332 0.6105192 0.6227846 0.6390905 0.64797 0.6554251 0.6635811 0.6715596 0.6786412 0.6849994 0.6910389 0.6970697 0.7033514 0.7097167 0.7161428 0.7226887 0.7293854 0.7361079 0.7429587 0.7500933 0.7575905 0.7650905 0.7729067 0.7815034 0.7910388 0.8000562 0.8099999 0.8228684 0.8401647 0.8605977 0.8832938 0.9077964 0.9336945 0.9608299 0.9883711 1.015516 1.041729 1.067203 1.091744 1.115098 1.137191 1.158476 1.178507 1.196825 1.213207 1.228116 1.24181 1.254416 1.266035 1.276737 1.286675 1.295994 1.304828 1.313295 1.321267 1.328608 1.335318 1.341977 1.348054 1.35289 1.355969 1.357516 1.357995 1.357773 1.357002 1.35458 1.351563 1.349681 1.350708 1.354767 1.360118 1.365129 1.368729 1.372339 1.375334 1.376535 1.374632 1.368314 1.359388 1.350788 1.346179 1.345633 1.347105 1.348696 1.348758 1.347958 1.346816 1.345509 1.344126 1.342122 1.340024 1.338684 1.339023 1.341496 1.3448 1.3475 1.348397 1.347844 1.346442 1.344623 1.34283 1.341113 1.33905 1.33617 1.33185 1.325274 1.317385 1.309725 1.303833 1.298199 1.293784 1.292593 1.296622 1.306394 1.318531 1.329917 1.338773 1.347252 1.354786 1.360177 1.362434 1.361507 1.358631 1.355128 1.352255 1.34924 1.345982 1.342824 1.340164 1.338272 1.336611 1.334484 1.331104 1.325936 1.319925 1.314419 1.31086 1.309016 1.308356 1.308507 1.309366 1.312494 1.316074 1.31768 1.315145 1.308729 1.299195 1.287039 1.272275 1.250411 1.223228 1.196918 1.181354 1.18017 1.186729 1.193395 1.193995 1.191405 1.187234 1.181623 1.17449 1.164309 1.152289 1.140679 1.131905 1.125265 1.120337 1.11718 1.115925 1.117293 1.120415 1.124075 1.127252 1.130449 1.133868 1.137455 1.141148 1.144863 1.148725 1.152886 1.157476 1.162449 1.167686 1.173084 1.178599 1.184474 1.190406 1.196 1.200945 1.205412 1.209532 1.213357 1.216908 1.220026 1.222921 1.225875 1.229126 1.232572 1.236116 1.239706 1.243287 1.246789 1.250328 1.254046 1.257988 1.261722 1.265676 1.270436 1.276669 1.285237 1.294109 1.301181 1.304836 1.305439 1.30436 1.302828 1.30216 1.302957 1.303519 1.301903 1.293275 1.256817 1.208037 1.20128 1.280901 1.380548 1.438013 1.465984 1.473367 1.472391 1.471614 1.470815 1.470416 1.470425
1.430637 1.430705 1.427516 1.4206 1.413082 1.404811 1.394339 1.375011 1.348433 1.315104 1.278187 1.235514 1.185158 1.127126 1.063125 0.9978741 0.9334131 0.8694633 0.8042779 0.7450247 0.6959702 0.6581289 0.6325626 0.6283077 0.6386464 0.6523713 0.6601344 0.666804 0.6741211 0.6813772 0.6879839 0.694043 0.6999224 0.7059292 0.7123193 0.7189216 0.7257074 0.7327287 0.7400095 0.7474207 0.7550593 0.7630743 0.771553 0.7802247 0.7892687 0.7989717 0.8094199 0.8196673 0.830617 0.8435138 0.8592885 0.8771242 0.8964675 0.9170333 0.9385745 0.9610347 0.9838678 1.006521 1.028608 1.050268 1.071363 1.091693 1.111182 1.130153 1.148251 1.165088 1.180444 1.194636 1.207861 1.22022 1.231785 1.24254 1.252663 1.262336 1.271712 1.280848 1.289588 1.29779 1.305439 1.313076 1.320181 1.326121 1.330412 1.333278 1.3352 1.336563 1.337554 1.337272 1.336632 1.337017 1.339792 1.345228 1.351546 1.357047 1.360532 1.36292 1.364423 1.36485 1.363831 1.360334 1.355626 1.351673 1.350607 1.352474 1.355689 1.358768 1.360505 1.36141 1.361929 1.362257 1.362554 1.362639 1.362598 1.362607 1.362878 1.363679 1.364532 1.364835 1.364024 1.362113 1.359456 1.356401 1.353304 1.350115 1.34657 1.342409 1.337228 1.330266 1.322301 1.31469 1.308744 1.302873 1.298317 1.297432 1.302515 1.313973 1.327829 1.340614 1.35049 1.359856 1.368101 1.373986 1.376525 1.375725 1.372878 1.369341 1.366444 1.363556 1.36036 1.356885 1.353169 1.349285 1.345062 1.340258 1.334477 1.326867 1.318284 1.310255 1.30453 1.300988 1.29906 1.298307 1.298592 1.301804 1.305781 1.30762 1.304613 1.296228 1.284233 1.270887 1.258803 1.245893 1.232693 1.221443 1.214981 1.21513 1.218689 1.22174 1.220971 1.217794 1.213095 1.206995 1.199384 1.188714 1.176169 1.164018 1.154771 1.147757 1.142567 1.139275 1.138029 1.1396 1.143054 1.147087 1.150614 1.154177 1.157978 1.161944 1.166005 1.17011 1.174346 1.178816 1.183605 1.188693 1.193971 1.199336 1.204745 1.210449 1.216147 1.221449 1.22605 1.230123 1.233804 1.237152 1.240188 1.242747 1.24505 1.247392 1.250024 1.252837 1.255738 1.258689 1.261665 1.264713 1.267788 1.270818 1.27372 1.27638 1.279006 1.281855 1.285225 1.289501 1.293908 1.297551 1.299664 1.300345 1.300216 1.299853 1.299973 1.301484 1.302778 1.301874 1.293989 1.258845 1.21212 1.206447 1.284122 1.381615 1.438286 1.46601 1.473359 1.472385 1.47161 1.470814 1.470415 1.470425
1.43052 1.43059 1.427313 1.420195 1.412435 1.403885 1.392706 1.372307 1.343973 1.308201 1.268635 1.223182 1.170014 1.109596 1.044564 0.9821754 0.9247029 0.8701012 0.8138378 0.7629259 0.721195 0.6889141 0.6664684 0.661161 0.6677575 0.6773331 0.682315 0.6866145 0.6916439 0.6968223 0.7016598 0.7062322 0.7108376 0.7157263 0.7211065 0.7268271 0.7328676 0.7392768 0.7460734 0.7531108 0.7604992 0.7684066 0.7769464 0.7858968 0.7953359 0.8054246 0.8161997 0.8270649 0.8385454 0.8513701 0.8660803 0.8821726 0.8992934 0.9172527 0.935891 0.9551952 0.9747987 0.9943156 1.013466 1.03235 1.050872 1.068885 1.086325 1.10341 1.119879 1.135436 1.149893 1.163447 1.176251 1.188389 1.199912 1.210733 1.221049 1.231079 1.240996 1.250795 1.260303 1.269372 1.277978 1.2866 1.294749 1.301835 1.307418 1.311713 1.315186 1.31821 1.320979 1.322769 1.324335 1.326753 1.331055 1.33758 1.344661 1.350697 1.354525 1.356722 1.357947 1.358603 1.358923 1.35814 1.356951 1.356467 1.357778 1.360947 1.364899 1.36861 1.371276 1.373242 1.374862 1.376323 1.377802 1.379329 1.380739 1.38186 1.38258 1.383167 1.383422 1.383014 1.381591 1.378966 1.375492 1.371622 1.367828 1.363963 1.359796 1.355156 1.349748 1.342909 1.335304 1.328109 1.322467 1.317089 1.313001 1.312147 1.316435 1.326339 1.338464 1.349747 1.358503 1.366867 1.374263 1.379534 1.38173 1.380805 1.377978 1.374561 1.371861 1.369417 1.366765 1.363687 1.359947 1.355549 1.350505 1.344786 1.338219 1.329825 1.320394 1.311488 1.304942 1.300604 1.29801 1.296858 1.297148 1.300874 1.305611 1.308208 1.305743 1.297418 1.285533 1.273217 1.264266 1.257716 1.252752 1.249272 1.247345 1.248403 1.250871 1.252515 1.251398 1.248227 1.243587 1.237656 1.2304 1.220367 1.208615 1.197217 1.188486 1.181823 1.17686 1.173674 1.172407 1.173779 1.176925 1.180634 1.183898 1.187227 1.190798 1.194528 1.198346 1.202243 1.20626 1.210432 1.214796 1.219361 1.224044 1.228756 1.233459 1.238381 1.243263 1.247764 1.251613 1.254962 1.257934 1.260586 1.262939 1.264828 1.266466 1.26814 1.2701 1.272236 1.274464 1.276751 1.279088 1.281585 1.28411 1.286483 1.288547 1.290351 1.291986 1.293518 1.295015 1.296523 1.29794 1.299152 1.300044 1.300588 1.300919 1.301183 1.301713 1.303611 1.305334 1.304888 1.297603 1.264111 1.219851 1.214756 1.28894 1.383178 1.438685 1.46605 1.473328 1.472363 1.471596 1.470807 1.470412 1.470422
1.430621 1.430695 1.427463 1.420448 1.412811 1.40445 1.392323 1.371683 1.342889 1.306536 1.266536 1.220974 1.168241 1.109146 1.046787 0.9894816 0.9391812 0.8926045 0.8437647 0.7991455 0.7621531 0.732735 0.7109888 0.702867 0.7044787 0.7088477 0.709887 0.7107164 0.7124735 0.7146755 0.7169114 0.7192714 0.7219622 0.7251372 0.7289228 0.7332091 0.737992 0.7433164 0.7491943 0.7554632 0.7622482 0.7697365 0.7780666 0.787053 0.7966865 0.8070236 0.8180579 0.8294731 0.8414829 0.8543968 0.8684369 0.8833414 0.8989037 0.9149927 0.9315023 0.9484383 0.9655645 0.9826243 0.9994258 1.016031 1.032384 1.048395 1.064017 1.079366 1.094288 1.108601 1.122181 1.135114 1.147507 1.15943 1.170916 1.181826 1.19236 1.202751 1.213178 1.223587 1.233798 1.243667 1.253161 1.262683 1.271791 1.279962 1.286812 1.292535 1.297549 1.302189 1.306625 1.310264 1.313739 1.317905 1.323548 1.330912 1.338628 1.345411 1.350334 1.35383 1.356547 1.358941 1.361332 1.363281 1.36508 1.367213 1.370122 1.373857 1.377865 1.381615 1.384686 1.387232 1.389509 1.391699 1.393984 1.396502 1.398937 1.400938 1.402258 1.403283 1.403828 1.403532 1.401979 1.398832 1.39458 1.389915 1.385595 1.381392 1.377011 1.372271 1.366884 1.360296 1.353098 1.346328 1.341066 1.336588 1.33335 1.332324 1.334517 1.340555 1.348385 1.3559 1.36177 1.367488 1.372621 1.376225 1.377456 1.376096 1.373211 1.370038 1.367842 1.366395 1.365056 1.363308 1.360653 1.357228 1.353115 1.348285 1.342559 1.334962 1.326289 1.31808 1.312081 1.307898 1.305295 1.304342 1.305381 1.31028 1.316356 1.32037 1.319489 1.313243 1.303955 1.294541 1.288382 1.284736 1.282557 1.281305 1.280599 1.281549 1.283192 1.284032 1.282746 1.279753 1.275481 1.270109 1.263635 1.254818 1.244555 1.234609 1.226935 1.221025 1.216569 1.213635 1.212346 1.213316 1.215822 1.21884 1.221517 1.224291 1.227301 1.230464 1.233714 1.23708 1.240555 1.244114 1.247739 1.251469 1.255251 1.259015 1.262734 1.26659 1.270386 1.273851 1.276766 1.279246 1.281392 1.283258 1.284861 1.286042 1.286995 1.287991 1.289264 1.290715 1.292265 1.293883 1.295566 1.297444 1.299359 1.301097 1.302476 1.303592 1.304497 1.305197 1.305677 1.30583 1.305795 1.305769 1.305924 1.306188 1.306509 1.306867 1.307452 1.309425 1.311282 1.31104 1.304216 1.272694 1.231266 1.226252 1.295451 1.385294 1.439229 1.466107 1.473274 1.472325 1.47157 1.470795 1.470407 1.470417
1.430722 1.430795 1.427604 1.420685 1.413162 1.404938 1.392982 1.372703 1.344509 1.309119 1.270522 1.227042 1.177337 1.122401 1.065334 1.014249 0.9705502 0.9304463 0.8876544 0.8478405 0.8139554 0.7858608 0.7635714 0.7519203 0.7481667 0.7469963 0.7436011 0.740451 0.738458 0.7372263 0.7364188 0.7361763 0.7366054 0.7377375 0.7395933 0.7421218 0.7453442 0.7493002 0.753996 0.7592582 0.7652259 0.7721043 0.7800537 0.7889196 0.7986155 0.8091046 0.8203409 0.8322474 0.8447644 0.8578367 0.8714083 0.8854198 0.8997802 0.9143981 0.9292017 0.9442035 0.959268 0.9742425 0.9890085 1.003592 1.017977 1.032126 1.046014 1.059656 1.07301 1.086033 1.098684 1.110951 1.122887 1.134548 1.145949 1.156925 1.167654 1.178356 1.189191 1.200074 1.210836 1.221346 1.231562 1.241797 1.251681 1.260781 1.268782 1.275847 1.282315 1.288452 1.294389 1.299642 1.304742 1.310374 1.31712 1.325037 1.333181 1.340702 1.347011 1.352457 1.357392 1.362014 1.366466 1.370638 1.3746 1.378464 1.38233 1.386236 1.390046 1.393628 1.396864 1.399743 1.402438 1.405119 1.407967 1.411174 1.414329 1.416979 1.418826 1.420367 1.421378 1.421417 1.419983 1.416646 1.412006 1.406939 1.402437 1.398231 1.393967 1.389438 1.384339 1.378224 1.371624 1.365441 1.360687 1.357186 1.354812 1.353598 1.35364 1.355536 1.358485 1.361431 1.363591 1.365719 1.367605 1.3687 1.368428 1.366393 1.363436 1.360654 1.359201 1.359128 1.359574 1.359685 1.358713 1.357048 1.354771 1.351732 1.347634 1.3416 1.334466 1.327703 1.322883 1.319324 1.317042 1.316506 1.318408 1.324328 1.331473 1.336712 1.337495 1.333822 1.327746 1.321535 1.317635 1.315345 1.313904 1.312985 1.312373 1.312808 1.31362 1.313771 1.312326 1.309549 1.305749 1.301065 1.295492 1.288033 1.27943 1.271112 1.264643 1.259607 1.255753 1.253135 1.251856 1.252409 1.254223 1.256486 1.258512 1.260658 1.263029 1.265543 1.268141 1.270885 1.27373 1.276598 1.279429 1.282282 1.285131 1.287926 1.290646 1.293429 1.296134 1.298566 1.30056 1.302191 1.303541 1.304655 1.305548 1.306072 1.306399 1.306773 1.307411 1.308227 1.309146 1.31014 1.311205 1.312472 1.313786 1.314934 1.315735 1.316275 1.316609 1.316747 1.316674 1.316247 1.31564 1.315098 1.314845 1.314795 1.314877 1.315061 1.315522 1.317402 1.319229 1.319063 1.312657 1.283357 1.245087 1.24001 1.303329 1.38791 1.439911 1.466178 1.473221 1.472287 1.471545 1.470783 1.470402 1.470411
1.430823 1.430892 1.42774 1.42091 1.413493 1.40536 1.394543 1.37515 1.348464 1.315332 1.279637 1.239945 1.195185 1.146368 1.096247 1.051812 1.013915 0.9789267 0.9411504 0.9052421 0.8736474 0.8462584 0.8231091 0.8080862 0.7993636 0.7929997 0.7852749 0.7781469 0.7723529 0.7675803 0.7635674 0.7605377 0.7585006 0.7573528 0.7569959 0.7574517 0.7587755 0.7610068 0.7641492 0.7680205 0.7727805 0.7786614 0.7858513 0.7942181 0.8036124 0.8139226 0.82507 0.8371664 0.8499306 0.8630145 0.8761384 0.8893992 0.9027913 0.9162461 0.9297109 0.9431984 0.9566426 0.9699642 0.9830976 0.9960384 1.008801 1.021394 1.033811 1.045975 1.057947 1.069813 1.081624 1.093284 1.1048 1.116207 1.127506 1.138535 1.149428 1.16036 1.171456 1.182622 1.193711 1.204615 1.215292 1.225956 1.236325 1.246076 1.254976 1.263146 1.270824 1.278192 1.285331 1.291881 1.298255 1.304965 1.312408 1.320474 1.328661 1.336554 1.343882 1.350891 1.357583 1.363879 1.369744 1.37532 1.380565 1.385402 1.389769 1.393682 1.397293 1.400748 1.404141 1.40734 1.410443 1.413597 1.416967 1.420786 1.424564 1.427776 1.430092 1.432086 1.433519 1.433924 1.432773 1.42962 1.42511 1.420192 1.415951 1.412105 1.408278 1.404264 1.399771 1.394454 1.388773 1.38347 1.379423 1.376809 1.37513 1.373812 1.372332 1.371082 1.370037 1.368964 1.367654 1.366229 1.364697 1.363001 1.361005 1.358265 1.355334 1.353052 1.352328 1.353472 1.355469 1.357202 1.357765 1.357769 1.357251 1.355929 1.353407 1.348966 1.343455 1.33821 1.334572 1.331692 1.329776 1.329551 1.331908 1.338078 1.345439 1.351189 1.353155 1.351644 1.34834 1.344883 1.342916 1.341887 1.341262 1.340821 1.340418 1.340509 1.340688 1.340317 1.338807 1.33629 1.332969 1.328961 1.324263 1.318102 1.311071 1.304294 1.298978 1.294791 1.291534 1.28925 1.288017 1.288218 1.289421 1.291004 1.292438 1.294006 1.29578 1.297684 1.299668 1.301816 1.304055 1.306272 1.308376 1.310435 1.312448 1.314377 1.31621 1.318039 1.319775 1.321289 1.322469 1.323356 1.32401 1.324472 1.324753 1.324718 1.324516 1.324365 1.32446 1.324727 1.325099 1.325549 1.326072 1.326791 1.327565 1.328192 1.328495 1.328541 1.328395 1.328086 1.327621 1.326854 1.32594 1.325109 1.32457 1.324229 1.324039 1.324001 1.324307 1.326048 1.327799 1.327685 1.321731 1.294819 1.25995 1.254956 1.31213 1.39093 1.440713 1.466261 1.473167 1.47225 1.471521 1.470772 1.470398 1.470406
1.431049 1.431115 1.428116 1.421638 1.414635 1.406997 1.39687 1.378895 1.354488 1.32465 1.29296 1.258206 1.219541 1.177861 1.135358 1.097399 1.064405 1.033383 0.9997794 0.9671689 0.9374679 0.9106471 0.8868074 0.869055 0.8562333 0.8454715 0.8339342 0.8231994 0.8138798 0.8057429 0.798603 0.7927902 0.7882283 0.7846795 0.7819203 0.7800542 0.7791789 0.7793401 0.7805442 0.7826011 0.7857025 0.7901208 0.7960841 0.8034725 0.8120928 0.8217836 0.8324435 0.8443146 0.8569577 0.8698163 0.8824496 0.8950602 0.9076952 0.9202943 0.9328114 0.9452582 0.957606 0.9698163 0.9818527 0.9936895 1.005361 1.016904 1.028327 1.039482 1.050508 1.061585 1.072835 1.084112 1.095379 1.106649 1.117911 1.129031 1.140084 1.151176 1.162379 1.173612 1.184767 1.195765 1.206566 1.217298 1.227773 1.23778 1.247168 1.256022 1.264474 1.27262 1.280497 1.287912 1.295106 1.302367 1.309905 1.317597 1.325263 1.332779 1.340072 1.347245 1.354209 1.360849 1.367114 1.373215 1.379003 1.38428 1.388884 1.392792 1.396344 1.399874 1.40362 1.407367 1.411127 1.414994 1.419101 1.423738 1.428317 1.432224 1.435083 1.437508 1.439324 1.440117 1.439427 1.436846 1.433014 1.42884 1.425337 1.42222 1.419152 1.41596 1.412414 1.408276 1.403898 1.399824 1.39671 1.394865 1.393676 1.392365 1.390175 1.387244 1.383889 1.380354 1.376862 1.373144 1.369319 1.36568 1.362486 1.359425 1.356748 1.35491 1.354441 1.35579 1.35805 1.36013 1.361168 1.361792 1.362 1.361474 1.359815 1.356477 1.352216 1.348143 1.345322 1.342928 1.341244 1.341036 1.343176 1.348531 1.35501 1.360393 1.362967 1.363088 1.362042 1.360986 1.361024 1.361938 1.363119 1.364094 1.364477 1.364574 1.364346 1.363596 1.362125 1.359895 1.35702 1.353616 1.349713 1.344714 1.339078 1.333663 1.329375 1.325952 1.323243 1.321279 1.320118 1.320047 1.320749 1.321765 1.322701 1.323775 1.325032 1.326405 1.327853 1.329471 1.33117 1.332813 1.33429 1.335674 1.336975 1.338173 1.339256 1.340278 1.341194 1.341929 1.34242 1.34268 1.342751 1.342667 1.34244 1.341948 1.341318 1.340739 1.340386 1.340195 1.340108 1.340099 1.340162 1.34042 1.340736 1.340911 1.340768 1.340369 1.339778 1.339026 1.338115 1.33687 1.335475 1.334211 1.333336 1.332746 1.332377 1.332217 1.332438 1.334087 1.335805 1.335801 1.330381 1.305919 1.27456 1.269968 1.321294 1.394197 1.4416 1.466353 1.473093 1.472197 1.471485 1.470755 1.470391 1.470399
